7.86380005 5.30470991 27.68289948 255 176 0
8.02466011 5.50454998 27.86090088 255 124 0
8.09265995 5.75874996 28.08600044 255 58 0
7.94702005 4.93170023 27.42379951 255 252 0
8.02735996 5.19408989 27.63290024 255 191 0
8.17490959 5.40323019 27.84830093 255 127 0
8.22824955 5.66632986 28.10960007 255 50 0
8.08631992 4.83459997 27.45050049 255 245 0
8.12582016 5.12216997 27.76950073 255 151 0
8.32575035 5.30143023 27.83760071 255 130 0
8.43391037 5.53842020 27.95079994 255 97 0
8.26523018 4.71175003 27.36840057 240 255 0
8.33080006 4.98652983 27.61280060 255 197 0
8.47714996 5.19917011 27.82869911 255 133 0
8.59945965 5.43034983 27.90489960 255 111 0
8.50963020 4.54621983 27.11470032 166 255 0
8.55220032 4.84068012 27.42250061 255 253 0
8.70016956 5.05693007 27.63890076 255 189 0
8.76607990 5.32145977 27.86109924 255 124 0
8.65524006 4.44466019 27.13870049 172 255 0
8.74870014 4.70947981 27.30839920 222 255 0
8.89739037 4.92858982 27.52529907 255 222 0
9.02248001 5.16599989 27.60129929 255 200 0
8.89179039 4.28379011 26.92799950 110 255 0
8.96154976 4.56809998 27.16080093 179 255 0
9.15929985 4.76356983 27.26040077 208 255 0
9.19276047 5.05440998 27.56279945 255 212 0
5.05895996 7.91883993 26.89060020 99 255 0
5.09541988 7.59336996 26.61219978 17 255 0
5.19005013 7.82821989 26.91889954 108 255 0
5.21607018 7.50657988 26.71100044 47 255 0
5.31352997 7.74021006 26.98769951 128 255 0
5.15676022 7.23290014 26.59070015 11 255 0
5.33182001 7.42216015 26.83060074 82 255 0
5.42856979 7.65541983 27.09700012 160 255 0
5.26653004 7.15289021 26.75029945 58 255 0
5.46508980 7.33033991 26.85350037 88 255 0
5.55808020 7.56572008 27.12919998 170 255 0
5.26948023 6.83343983 26.67160034 35 255 0
5.40025997 7.06056023 26.77409935 65 255 0
5.57849979 7.24743986 26.97540092 124 255 0
5.68732977 7.47615004 27.16279984 180 255 0
5.41107988 6.73598003 26.65789986 31 255 0
5.52419996 6.97340012 26.84799957 87 255 0
5.67810011 7.17117023 27.15690041 177 255 0
5.80781984 7.38999987 27.23670006 201 255 0
5.51850986 6.65962982 26.82110023 79 255 0
5.62930012 6.89646006 27.01090050 135 255 0
5.80704021 7.08170986 27.19319916 189 255 0
5.93624020 7.30088997 27.27289963 212 255 0
5.63379002 6.57848978 26.93659973 113 255 0
5.71781015 6.82881021 27.24259949 203 255 0
5.92475986 6.99757004 27.27949905 214 255 0
6.03495979 7.22387981 27.43659973 255 249 0
5.73940992 6.50342989 27.09199905 159 255 0
5.86314011 6.73037004 27.20339966 192 255 0
6.04373980 6.91298008 27.35720062 237 255 0
6.15489006 7.13859987 27.50429916 255 229 0
5.84944010 6.42567015 27.21920013 196 255 0
5.96729994 6.65454006 27.34970093 234 255 0
6.14328003 6.83797979 27.51339912 255 226 0
6.26929998 7.05579996 27.59250069 255 203 0
5.97770023 6.33648014 27.26049995 208 255 0
6.06963015 6.57992983 27.49690056 255 231 0
6.24082994 6.76430988 27.67040062 255 180 0
6.36787987 6.98003006 27.73959923 255 160 0
6.09883022 6.25176001 27.33200073 229 255 0
6.19122982 6.49467993 27.55820084 255 213 0
6.37578011 6.67231989 27.67440033 255 179 0
6.49253988 6.89326000 27.78190041 255 147 0
6.23323011 6.15861988 27.34709930 234 255 0
6.31947994 6.40571022 27.59199905 255 203 0
6.47299004 6.59925985 27.82369995 255 135 0
6.59340000 6.81711006 27.91169930 255 109 0
6.35326004 6.07455015 27.42119980 255 253 0
6.43509007 6.32389021 27.67510033 255 178 0
6.59694004 6.51287985 27.86860085 255 121 0
6.70605993 6.73594999 27.99460030 255 85 0
6.47994995 5.98622990 27.46780014 255 240 0
6.56002998 6.23679018 27.72109985 255 165 0
6.72052002 6.42669010 27.91480064 255 108 0
6.82881021 6.65035009 28.04050064 255 71 0
6.60627985 5.89810991 27.51580048 255 225 0
6.68459988 6.14988995 27.76840019 255 151 0
6.84375000 6.34070015 27.96229935 255 94 0
6.95118999 6.56494999 28.08769989 255 57 0
6.72439003 5.81519985 27.59359932 255 203 0
6.80880022 6.06318998 27.81699944 255 137 0
6.96660995 6.25490999 28.01110077 255 80 0
7.07320976 6.47975016 28.13619995 255 43 0
6.85778999 5.72247982 27.61569977 255 196 0
6.93262005 5.97668982 27.86689949 255 122 0
7.13500977 6.14512014 27.90990067 255 109 0
7.19484997 6.39475012 28.18600082 255 28 0
7.04062986 5.59787989 27.46920013 255 240 0
7.09279013 5.86893988 27.79529953 255 143 0
7.24349022 6.06680012 28.00889969 255 80 0
7.32816982 6.30419016 28.19939995 255 24 0
7.17525005 5.50417995 27.49489975 255 231 0
7.24562979 5.76527977 27.75410080 255 155 0
7.38094997 5.97310019 28.01499939 255 78 0
7.46471024 6.21197987 28.20490074 255 23 0
7.35020018 5.38437986 27.39049911 246 255 0
7.39053011 5.66614008 27.74290085 255 159 0
7.50330019 5.88744020 28.06949997 255 62 0
7.60782003 6.11645985 28.19319916 255 26 0
7.48866987 5.28802013 27.41029930 252 255 0
7.54804993 5.55942011 27.69599915 255 172 0
7.68488979 5.76968002 27.94779968 255 98 0
7.76753998 6.01257992 28.13669968 255 43 0
7.62421989 5.19350004 27.44099998 255 248 0
7.69733000 5.45741987 27.67910004 255 177 0
7.87177992 5.64865017 27.81929970 255 136 0
7.94155979 5.90128994 28.04490089 255 70 0
7.77821016 5.08693981 27.41740036 255 255 0
7.84722996 5.35493994 27.66410065 255 182 0
8.02161980 5.54754019 27.80470085 255 140 0
8.10723019 5.79379988 27.98329926 255 88 0
7.91718006 4.99004984 27.44199944 255 247 0
7.98482990 5.25969982 27.68790054 255 174 0
8.18540955 5.43859005 27.75499916 255 155 0
8.25366020 5.69572020 27.97920036 255 89 0
8.09477997 4.86792994 27.35750008 237 255 0
8.14554024 5.15049982 27.64870071 255 186 0
8.30945969 5.35143995 27.81789970 255 136 0
8.41796017 5.58838987 27.93090057 255 103 0
8.31007004 4.72105980 27.17410088 183 255 0
8.34080029 5.02030993 27.51959991 255 225 0
8.50590038 5.22396994 27.68950081 255 174 0
8.58335972 5.48022985 27.88470078 255 117 0
8.49160957 4.59603977 27.09490013 160 255 0
8.52120972 4.89880991 27.43910027 255 248 0
8.68338966 5.10671997 27.61860085 255 195 0
8.79321003 5.34887981 27.73100090 255 162 0
8.72929001 4.43413019 26.87199974 94 255 0
8.76951027 4.73590994 27.18759918 187 255 0
8.90913963 4.96206999 27.43180084 255 250 0
9.00568008 5.21562004 27.58040047 255 207 0
8.90456963 4.31289005 26.82550049 80 255 0
9.01117039 4.57659006 26.96730042 122 255 0
9.16732979 4.79858017 27.17580032 183 255 0
9.23573017 5.07264996 27.39649963 249 255 0
5.06118011 7.96619987 26.92049980 108 255 0
5.08547020 7.64616013 26.71089935 47 255 0
5.19898987 7.87334013 26.90940094 105 255 0
5.21058989 7.55760002 26.78009987 67 255 0
5.32243013 7.78526020 26.97820091 125 255 0
5.14621019 7.28771019 26.68930054 40 255 0
5.34221983 7.46634007 26.81139946 76 255 0
5.42789984 7.70380020 27.13649940 171 255 0
5.15859985 6.96197987 26.55030060 0 254 0
5.26948977 7.20070982 26.77039909 64 255 0
5.45650005 7.38282013 26.93210030 112 255 0
5.56688023 7.61061001 27.11969948 167 255 0
5.28637981 6.87292004 26.61350060 17 255 0
5.40108013 7.10939980 26.80389977 74 255 0
5.58697987 7.29226017 26.96599960 121 255 0
5.69607019 7.52093983 27.15320015 177 255 0
5.40977001 6.78658009 26.69739914 42 255 0
5.52470016 7.02235985 26.87770081 95 255 0
5.70290995 7.20842981 27.06940079 152 255 0
5.82498980 7.43139982 27.18810081 187 255 0
5.52644014 6.70445013 26.81189919 76 255 0
5.64348984 6.93801022 26.97229958 124 255 0
5.81546021 7.12641001 27.18370056 186 255 0
5.92518997 7.35339022 27.35079956 235 255 0
5.65757990 6.61328983 26.84959984 87 255 0
5.75289011 6.85890007 27.10689926 163 255 0
5.93314981 7.04220009 27.27000046 211 255 0
6.04585981 7.26753998 27.41720009 255 255 0
5.74732018 6.54815006 27.08270073 156 255 0
5.84779978 6.78799009 27.30069923 220 255 0
6.06108999 6.95318985 27.30890083 222 255 0
6.15186024 7.18797016 27.54299927 255 217 0
5.85945988 6.46899986 27.20019913 190 255 0
5.99307013 6.68934011 27.26289940 209 255 0
6.16321993 6.87683010 27.45549965 255 243 0
6.28026009 7.09922981 27.57320023 255 209 0
5.98553991 6.38106012 27.25119972 206 255 0
6.08457994 6.62067986 27.45849991 255 243 0
6.26828003 6.79933023 27.58370018 255 205 0
6.39369011 7.01696014 27.66250038 255 182 0
6.08852005 6.30776978 27.39970016 249 255 0
6.19228983 6.54314995 27.57769966 255 207 0
6.36440992 6.72656012 27.74169922 255 159 0
6.49091005 6.94204998 27.81060028 255 139 0
6.21530008 6.21936989 27.44339943 255 247 0
6.31786013 6.45558977 27.62100029 255 195 0
6.49893999 6.63465023 27.74690056 255 157 0
6.61491013 6.85555983 27.85409927 255 126 0
6.32494020 6.14188004 27.55559921 255 213 0
6.43068981 6.37530994 27.71349907 255 167 0
6.60516024 6.55713987 27.85890007 255 124 0
6.71451998 6.78015995 27.98489952 255 87 0
6.48757982 6.03045988 27.45840073 255 243 0
6.57561016 6.27662992 27.68289948 255 176 0
6.72869015 6.47086000 27.90509987 255 111 0
6.84816980 6.68943977 27.99259949 255 85 0
6.59355021 5.95527983 27.58259964 255 206 0
6.68201017 6.20009995 27.79689980 255 142 0
6.84095001 6.39048004 27.99069977 255 85 0
6.94831991 6.61422014 28.11599922 255 49 0
6.73973989 5.85422993 27.55559921 255 213 0
6.81662989 6.10725021 27.80739975 255 139 0
6.97466993 6.29891014 28.00139999 255 83 0
7.09301996 6.51827002 28.08849907 255 57 0
6.82515001 5.79231024 27.74850082 255 157 0
6.92938995 6.02711010 27.89520073 255 114 0
7.08276987 6.22082996 28.09880066 255 53 0
7.20603991 6.43721008 28.16670036 255 34 0
7.01503992 5.66290998 27.57320023 255 209 0
7.07505989 5.92768002 27.87080002 255 121 0
7.26605988 6.10273981 27.95199966 255 97 0
7.33634996 6.34794998 28.18950081 255 27 0
7.16282988 5.56057978 27.55130005 255 215 0
7.20121002 5.83964014 27.91399956 255 108 0
7.37377977 6.02481985 28.05220032 255 68 0
7.45741987 6.26312017 28.24200058 255 11 0
7.32278013 5.45025015 27.49370003 255 232 0
7.37139988 5.72547007 27.81769943 255 136 0
7.50801992 5.93267012 28.06909943 255 62 0
7.61583996 6.15997982 28.18330002 255 29 0
7.47214985 5.34670019 27.47559929 255 237 0
7.48893023 5.64239979 27.89229965 255 115 0
7.63296986 5.84549999 28.11549950 255 49 0
7.74975014 6.06867981 28.20140076 255 23 0
7.59807014 5.25832987 27.53400040 255 220 0
7.67679977 5.51732016 27.75340080 255 156 0
7.81844997 5.72515011 27.98629951 255 87 0
7.89688015 5.97069979 28.18379974 255 29 0
7.77275991 5.13810015 27.44490051 255 246 0
7.83863020 5.40754986 27.70079994 255 171 0
7.98000002 5.61759996 27.93400002 255 102 0
8.07141018 5.85873985 28.09379959 255 55 0
7.87370014 5.06592989 27.58069992 255 207 0
7.95004988 5.32795000 27.79859924 255 142 0
8.11268997 5.52581978 27.96699905 255 92 0
8.22029972 5.75940990 28.07999992 255 59 0
8.03405952 4.95488024 27.54170036 255 218 0
8.12623978 5.20929003 27.71279907 255 168 0
8.31669044 5.39425993 27.80800056 255 139 0
8.41152954 5.63825989 27.95759964 255 95 0
8.22813034 4.82161999 27.41290092 253 255 0
8.30405045 5.08940983 27.62940025 255 192 0
8.45407009 5.29955006 27.83550072 255 131 0
8.54821014 5.54473019 27.98469925 255 87 0
8.44783974 4.67136002 27.22260094 197 255 0
8.50057030 4.95796013 27.50259972 255 229 0
8.64797974 5.17298985 27.71829987 255 166 0
8.77153969 5.40622997 27.79400063 255 144 0
8.65367031 4.53002024 27.08130074 156 255 0
8.70629025 4.82061005 27.36030006 238 255 0
8.84397984 5.04488993 27.60390091 255 199 0
8.96862984 5.28076982 27.67939949 255 177 0
8.83767986 4.40287018 27.00670052 133 255 0
8.92158985 4.67713022 27.20280075 192 255 0
9.10064030 4.88202000 27.34709930 234 255 0
9.18274975 5.14594984 27.53129959 255 221 0
9.03736019 4.26525021 26.89839935 102 255 0
9.15044022 4.52502012 27.02140045 138 255 0
5.08160019 8.02171993 26.91909981 108 255 0
5.09892988 7.70440006 26.74889946 58 255 0
5.21227980 7.93111992 26.94729996 116 255 0
5.22371006 7.61597013 26.81809998 78 255 0
5.34272003 7.84062004 26.97690010 124 255 0
5.16618013 7.34308004 26.68810081 40 255 0
5.36229992 7.52162981 26.81010056 76 255 0
5.44813013 7.75916004 27.13509941 171 255 0
5.17834997 7.01729012 26.54920006 0 254 0
5.28225994 7.25978994 26.80839920 75 255 0
5.48602009 7.43382978 26.88190079 97 255 0
5.58705997 7.66586018 27.11840057 166 255 0
5.29186010 6.93699980 26.69070053 41 255 0
5.40608978 7.17256021 26.88100052 97 255 0
5.61482000 7.34385014 26.92569923 109 255 0
5.69776011 7.58316994 27.23979950 202 255 0
5.42940998 6.84177017 26.69650078 42 255 0
5.53678989 7.08169985 26.91570091 106 255 0
5.72280979 7.26357985 27.06830025 152 255 0
5.81752014 7.49733019 27.31349945 224 255 0
5.53069019 6.76922989 26.88879967 99 255 0
5.63329983 7.00945997 27.11730003 166 255 0
5.83530998 7.18153000 27.18260002 186 255 0
5.94518995 7.40850019 27.34959984 234 255 0
5.66121006 6.67838001 26.92650032 110 255 0
5.75398016 6.92425013 27.19339943 189 255 0
5.94423008 7.10144997 27.30769920 222 255 0
6.04775000 7.33002996 27.49370003 255 232 0
5.76472998 6.60456991 27.09149933 159 255 0
5.89089012 6.83011007 27.19300079 189 255 0
6.08082008 7.00819016 27.30789948 222 255 0
6.18337011 7.23812008 27.49349976 255 232 0
5.86187983 6.53487015 27.27680016 213 255 0
5.99499989 6.75423002 27.33930016 231 255 0
6.18288994 6.93181992 27.45450020 255 243 0
6.29768991 7.15521002 27.58169937 255 206 0
6.00488997 6.43608999 27.25040054 205 255 0
6.10408020 6.67573023 27.45759964 255 243 0
6.27835989 6.85905981 27.62129974 255 195 0
6.40360022 7.07617998 27.70000076 255 171 0
6.10782003 6.36279011 27.39900017 249 255 0
6.21174002 6.59816980 27.57679939 255 207 0
6.39379978 6.77657986 27.70229912 255 171 0
6.50809002 6.99807978 27.81920052 255 136 0
6.21588993 6.28625011 27.51959991 255 225 0
6.31796980 6.52156019 27.69700050 255 172 0
6.51844978 6.68952990 27.74600029 255 157 0
6.63456011 6.91039991 27.85309982 255 126 0
6.34172010 6.19834995 27.56450081 255 211 0
6.44258022 6.43450022 27.74139977 255 159 0
6.62460995 6.61199999 27.85810089 255 124 0
6.73411989 6.83500004 27.98390007 255 88 0
6.46965981 6.10904980 27.60120010 255 201 0
6.56685019 6.34763002 27.78720093 255 145 0
6.73478985 6.53255987 27.95199966 255 97 0
6.85676003 6.74923992 28.02980042 255 74 0
6.61260986 6.01002979 27.58200073 255 206 0
6.69860983 6.25640011 27.80570030 255 140 0
6.87121010 6.43950987 27.95179939 255 97 0
6.96780014 6.66894007 28.11510086 255 49 0
6.73789978 5.92233992 27.63109970 255 192 0
6.81431007 6.17448997 27.88279915 255 118 0
6.99394989 6.35356998 28.00070000 255 83 0
7.11244011 6.57288980 28.08760071 255 57 0
6.84410000 5.84697008 27.74790001 255 157 0
6.95948982 6.07530022 27.85670090 255 125 0
7.11632013 6.26783991 28.05080032 255 68 0
7.22540998 6.49178982 28.16589928 255 34 0
7.03115988 5.71916008 27.58209991 255 206 0
7.10537004 5.97557020 27.83239937 255 132 0
7.27347994 6.16346979 27.98909950 255 86 0
7.35564995 6.40244007 28.18880081 255 27 0
7.17039013 5.62224007 27.58849907 255 204 0
7.24038982 5.88215017 27.84749985 255 127 0
7.38086987 6.08571005 28.08919907 255 56 0
7.47666979 6.31755018 28.24119949 255 11 0
7.34149981 5.50448990 27.49329948 255 232 0
7.37552977 5.78857994 27.86420059 255 123 0
7.53930998 5.98034000 28.03100014 255 74 0
7.63501978 6.21429014 28.18269920 255 29 0
7.50257015 5.39314985 27.43779945 255 249 0
7.53193998 5.68224001 27.81690025 255 137 0
7.66448021 5.89291000 28.07749939 255 60 0
7.78172016 6.11651993 28.16340065 255 35 0
7.64072990 5.29665995 27.45899963 255 243 0
7.72026014 5.55660009 27.67830086 255 177 0
7.83413982 5.78101015 27.99510002 255 84 0
7.92904997 6.01823997 28.14599991 255 40 0
7.76667023 5.20810986 27.51899910 255 225 0
7.84469986 5.46911001 27.73760033 255 160 0
7.99881983 5.67156982 27.93350029 255 103 0
8.10711002 5.90426016 28.04689980 255 69 0
7.92671013 5.09717989 27.47850037 255 237 0
7.99767017 5.36437988 27.71489906 255 167 0
8.17477036 5.55562019 27.84639931 255 128 0
8.25627041 5.80458021 28.03330040 255 73 0
8.05564976 5.00654984 27.53230095 255 221 0
8.13492966 5.26904011 27.74020004 255 160 0
8.32178020 5.45555019 27.84449959 255 129 0
8.41646004 5.69907999 27.99399948 255 85 0
8.24643040 4.87520981 27.41270065 253 255 0
8.33928013 5.13285017 27.58309937 255 206 0
8.48653984 5.34537983 27.79850006 255 142 0
8.59531975 5.58369017 27.91090012 255 109 0
8.50609970 4.69834995 27.11249924 165 255 0
8.55996990 4.98640013 27.39240074 247 255 0
8.66650963 5.22641993 27.71809959 255 166 0
8.79022026 5.45960999 27.79360008 255 144 0
8.67177963 4.58319998 27.08130074 156 255 0
8.73503971 4.86747980 27.33279991 230 255 0
8.89118004 5.08184004 27.53079987 255 221 0
8.98723030 5.33398008 27.67910004 255 177 0
8.87304974 4.44443989 26.96129990 120 255 0
8.99656963 4.69536018 27.05730057 148 255 0
9.13360977 4.92667007 27.31069946 223 255 0
9.20127010 5.19894981 27.53109932 255 221 0
5.07721996 7.76243019 26.83370018 83 255 0
5.20604992 7.98269987 26.94339943 115 255 0
5.20836020 7.67132998 26.86330032 91 255 0
5.34922981 7.88765001 26.90410042 103 255 0
5.15920019 7.39474010 26.68429947 38 255 0
5.33926010 7.58033991 26.89419937 100 255 0
5.45716000 7.80505991 27.05260086 147 255 0
5.15742016 7.07740021 26.62369919 20 255 0
5.28423023 7.30665016 26.75539970 59 255 0
5.46991014 7.48948002 26.92659950 110 255 0
5.57887983 7.71788979 27.12380028 168 255 0
5.28987980 6.98525000 26.65719986 31 255 0
5.40658998 7.22005987 26.83760071 84 255 0
5.58660984 7.40502977 27.02869987 140 255 0
5.69976997 7.63122988 27.19619942 189 255 0
5.43124008 6.88746977 26.64340019 26 255 0
5.52797985 7.13409996 26.92110062 109 255 0
5.71623993 7.31477022 27.06369972 151 255 0
5.81141996 7.54841995 27.30879974 222 255 0
5.53876019 6.81097984 26.80649948 74 255 0
5.64444017 7.05093002 27.02519989 139 255 0
5.83720016 7.22864008 27.13899994 172 255 0
5.93036985 7.46300983 27.38360023 245 255 0
5.64615011 6.73465014 26.96080017 120 255 0
5.73910999 6.97994995 27.22760010 198 255 0
5.94648981 7.14827013 27.26399994 210 255 0
6.04173994 7.38092995 27.48870087 255 234 0
5.75769997 6.65573978 27.08679962 157 255 0
5.87778997 6.88471985 27.21730042 195 255 0
6.05646992 7.06783009 27.38039970 243 255 0
6.16573000 7.29380989 27.53680038 255 219 0
5.88247013 6.56841993 27.14609909 174 255 0
5.99713993 6.80025005 27.29570007 219 255 0
6.17654991 6.98261976 27.44939995 255 245 0
6.28451014 7.20899010 27.60540009 255 199 0
5.99793005 6.48705006 27.24530029 204 255 0
6.11563015 6.71634007 27.37520027 242 255 0
6.29115009 6.90024996 27.53890038 255 219 0
6.41973019 7.11710978 27.60779953 255 198 0
6.10324001 6.41220999 27.38419914 245 255 0
6.21461010 6.64362001 27.53300095 255 220 0
6.38764000 6.82718992 27.69680023 255 172 0
6.52239990 7.03960991 27.73670006 255 160 0
6.21147013 6.33552980 27.50469971 255 229 0
6.30202007 6.57774019 27.72999954 255 163 0
6.51227999 6.74003983 27.74040031 255 160 0
6.62868023 6.96082020 27.84740067 255 128 0
6.34691000 6.24132013 27.51110077 255 227 0
6.44609022 6.47937012 27.69750023 255 172 0
6.62625980 6.65841007 27.82360077 255 135 0
6.73897982 6.88044024 27.93980026 255 100 0
6.46044016 6.16120005 27.60510063 255 199 0
6.57062006 6.39221001 27.74329948 255 159 0
6.74199009 6.57598019 27.89839935 255 112 0
6.84006977 6.80453014 28.06200027 255 65 0
6.59564018 6.06704998 27.61429977 255 196 0
6.68439007 6.31133986 27.82839966 255 133 0
6.84066010 6.50260019 28.03140068 255 74 0
6.97603989 6.71250010 28.06139946 255 65 0
6.71288013 5.98449993 27.69169998 255 174 0
6.80792999 6.22477007 27.87669945 255 119 0
6.96279001 6.41698980 28.07979965 255 59 0
7.09801006 6.62700987 28.10969925 255 50 0
6.82668018 5.90417004 27.77969933 255 148 0
6.93109989 6.13841009 27.92630005 255 104 0
7.09595013 6.32550001 28.09169960 255 56 0
7.21668005 6.54312992 28.16880035 255 33 0
6.97227001 5.80311012 27.75539970 255 155 0
7.06511021 6.04560995 27.93939972 255 100 0
7.21758986 6.24012995 28.14279938 255 41 0
7.34081984 6.45664978 28.21039963 255 21 0
7.12692022 5.69603014 27.70450020 255 170 0
7.19926023 5.95265007 27.95400047 255 97 0
7.36273003 6.14202023 28.12000084 255 47 0
7.45857000 6.37331009 28.27199936 255 2 0
7.29981995 5.57691002 27.59919930 255 201 0
7.36002016 5.84372997 27.88559914 255 116 0
7.48410988 6.05672979 28.17399979 255 32 0
7.60711002 6.27477980 28.24119949 255 11 0
7.44529009 5.47562981 27.59000015 255 204 0
7.45593023 5.77353001 28.02529907 255 75 0
7.61755991 5.96481991 28.19190025 255 26 0
7.75004005 6.17883015 28.23089981 255 14 0
7.62121010 5.35426998 27.48920059 255 234 0
7.63937998 5.65070009 27.89509964 255 114 0
7.80211020 5.84461021 28.06229973 255 65 0
7.90981007 6.07425022 28.17580032 255 31 0
7.70708990 5.29197979 27.66979980 255 180 0
7.80307007 5.53954983 27.83250046 255 132 0
7.97587013 5.73001003 27.97240067 255 91 0
8.05741024 5.97556019 28.15979958 255 35 0
7.85961008 5.18585014 27.64710045 255 186 0
7.96161985 5.43133020 27.79070091 255 145 0
8.09817982 5.64383984 28.03280067 255 73 0
8.21922016 5.86943007 28.10860062 255 51 0
8.03522015 5.06440020 27.56150055 255 212 0
8.11462021 5.32634020 27.76930046 255 151 0
8.28773975 5.51992989 27.91020012 255 109 0
8.36828995 5.76958990 28.09639931 255 54 0
8.18636990 4.95897007 27.55200005 255 215 0
8.25162983 5.23098993 27.79590034 255 143 0
8.45184040 5.41001987 27.86370087 255 123 0
8.54619026 5.65464020 28.01269913 255 79 0
8.37465954 4.82888985 27.44350052 255 247 0
8.41250992 5.12095022 27.75989914 255 154 0
8.61703014 5.29929018 27.81940079 255 136 0
8.76883030 5.51596022 27.82159996 255 136 0
8.61240005 4.66591978 27.20980072 193 255 0
8.66110039 4.95692015 27.49769974 255 231 0
8.82627010 5.16328001 27.66790009 255 180 0
8.96535015 5.39038992 27.70669937 255 169 0
8.79516983 4.53917980 27.13450050 171 255 0
8.87143993 4.81599998 27.34860039 234 255 0
9.05268955 5.01702976 27.48310089 255 235 0
9.14904022 5.27116013 27.63080025 255 192 0
9.02171993 4.38324022 26.95289993 118 255 0
9.12755013 4.64653015 27.09370041 160 255 0
5.05666018 7.82466984 26.90019989 102 255 0
5.19748020 8.03987980 26.94099998 114 255 0
5.19937992 7.72851992 26.86070061 91 255 0
5.32784986 7.94915009 26.97019958 123 255 0
5.16317987 7.44490004 26.60320091 14 255 0
5.31763983 7.64300013 26.96010017 120 255 0
5.44294977 7.86401987 27.07909966 155 255 0
5.15423012 7.13049984 26.58189964 8 255 0
5.25893021 7.37226009 26.84090042 85 255 0
5.44776011 7.55235004 26.99209976 129 255 0
5.57226992 7.77392006 27.11100006 164 255 0
5.27994013 7.04242992 26.65439987 29 255 0
5.38800001 7.28202009 26.88360023 97 255 0
5.56984997 7.46541023 27.06459999 151 255 0
5.67508984 7.69411993 27.27109909 211 255 0
5.41936016 6.94567013 26.65010071 29 255 0
5.52805996 7.18578005 26.86910057 93 255 0
5.68106985 7.38372993 27.18709946 186 255 0
5.80297995 7.60491991 27.30540085 222 255 0
5.51943016 6.87387991 26.85199928 88 255 0
5.60363007 7.12504005 27.17770004 184 255 0
5.80948019 7.29411983 27.22299957 197 255 0
5.91332006 7.52289009 27.41889954 255 254 0
5.64423990 6.78639984 26.91839981 107 255 0
5.74629021 7.02746010 27.14629936 174 255 0
5.92040014 7.21299982 27.33790016 231 255 0
6.03117990 7.43807983 27.49460030 255 232 0
5.73186016 6.72273016 27.16080093 179 255 0
5.84540987 6.95418978 27.32029915 226 255 0
6.05655003 7.11969995 27.33760071 231 255 0
6.15967989 7.34891987 27.52300072 255 223 0
5.85399008 6.63701010 27.22940063 199 255 0
5.97057009 6.86642981 27.36919975 240 255 0
6.14945984 7.04785013 27.52249908 255 224 0
6.26670980 7.26905012 27.63979912 255 189 0
5.97321987 6.55315018 27.30890083 222 255 0
6.08854008 6.78277016 27.44829941 255 246 0
6.26355982 6.96573019 27.61170006 255 197 0
6.39912987 7.17830992 27.65159988 255 186 0
6.07370996 6.48139000 27.46669960 255 240 0
6.17787981 6.71560001 27.64430046 255 188 0
6.37907982 6.88301992 27.69230080 255 174 0
6.49657011 7.10315990 27.79940033 255 142 0
6.18142986 6.40500021 27.58679962 255 204 0
6.30280018 6.62812996 27.68709946 255 175 0
6.48623991 6.80473995 27.80290031 255 141 0
6.62048006 7.01637983 27.84250069 255 129 0
6.33751011 6.29723978 27.50639915 255 228 0
6.42739010 6.54085016 27.73119926 255 162 0
6.59978008 6.72332001 27.88570023 255 116 0
6.74405003 6.92976999 27.88699913 255 116 0
6.43159008 6.22969007 27.67679977 255 178 0
6.52140999 6.47141981 27.89139938 255 115 0
6.72033024 6.63831997 27.94099998 255 100 0
6.85372019 6.84969997 27.98040009 255 88 0
6.59877014 6.11453009 27.56159973 255 212 0
6.68588018 6.36076021 27.78520012 255 146 0
6.83498001 6.55646992 28.01659966 255 78 0
6.95401001 6.77424002 28.10350037 255 53 0
6.70093012 6.04169989 27.69599915 255 172 0
6.79109001 6.28485012 27.89990044 255 112 0
6.96547985 6.46625996 28.03639984 255 72 0
7.07564020 6.68884993 28.15150070 255 38 0
6.80414009 5.96821022 27.82169914 255 136 0
6.92222023 6.19364977 27.92079926 255 106 0
7.08750010 6.38053989 28.08600044 255 58 0
7.21146011 6.59662008 28.15360069 255 38 0
6.96281004 5.85835981 27.74970055 255 157 0
7.06731987 6.09406996 27.89579964 255 113 0
7.20912981 6.29504013 28.13689995 255 42 0
7.32967997 6.51287985 28.21380043 255 20 0
7.11729002 5.75115013 27.69860077 255 171 0
7.17881012 6.01448011 27.98570061 255 87 0
7.36603022 6.19032001 28.07620049 255 60 0
7.46262980 6.42192984 28.22820091 255 15 0
7.28991985 5.63188982 27.59300041 255 203 0
7.33617020 5.90736008 27.92630005 255 104 0
7.48766994 6.10471010 28.13010025 255 44 0
7.59570980 6.33084011 28.24410057 255 11 0
7.43526983 5.53046989 27.58349991 255 206 0
7.44385004 5.83003998 28.02820015 255 74 0
7.62443018 6.01075983 28.13859940 255 42 0
7.75438976 6.22680998 28.18680000 255 28 0
7.59900999 5.41684008 27.51980019 255 225 0
7.64222002 5.69786978 27.85099983 255 127 0
7.78045988 5.90602016 28.09269905 255 56 0
7.90123987 6.12847996 28.16880035 255 33 0
7.72138977 5.33044004 27.58849907 255 204 0
7.81848001 5.57879019 27.75110054 255 156 0
7.96666002 5.78423977 27.96520042 255 93 0
8.04872036 6.02966022 28.15250015 255 38 0
7.87430000 5.22379017 27.56570053 255 211 0
7.95185995 5.48562002 27.78339958 255 147 0
8.08897972 5.69792986 28.02540016 255 75 0
8.21035004 5.92338991 28.10110092 255 53 0
7.98661995 5.14397001 27.66500092 255 181 0
8.10472012 5.38048983 27.76180077 255 153 0
8.29172039 5.56627989 27.86560059 255 122 0
8.40069008 5.80198002 27.97809982 255 89 0
8.20174980 4.99588013 27.47060013 255 239 0
8.26163006 5.27276993 27.73299980 255 162 0
8.45590973 5.45602989 27.81900024 255 136 0
8.56507969 5.69365978 27.93120003 255 103 0
8.40351963 4.85648012 27.32539940 228 255 0
8.44307995 5.14978981 27.64189911 255 188 0
8.62119007 5.34497023 27.77449989 255 149 0
8.78783035 5.55445004 27.73999977 255 160 0
8.64155006 4.69280005 27.09169960 159 255 0
8.66427040 5.00209999 27.45280075 255 244 0
8.88739014 5.17598009 27.47690010 255 237 0
8.97000027 5.43604994 27.66150093 255 183 0
8.80766010 4.57680988 27.06200027 150 255 0
8.88858986 4.85212994 27.26700020 210 255 0
9.08565044 5.04534006 27.36520004 239 255 0
9.16856956 5.30859995 27.54920006 255 216 0
9.05175972 4.40869999 26.83499908 83 255 0
9.14468002 4.68211985 27.01199913 135 255 0
5.06740999 7.88105011 26.90010071 102 255 0
5.20678997 8.09667015 26.95059967 117 255 0
5.19791985 7.78999996 26.92930031 111 255 0
5.33879995 8.00520039 26.96990013 123 255 0
5.15146017 7.51275015 26.73069954 52 255 0
5.32818985 7.69905996 26.95989990 120 255 0
5.46133995 7.91718006 27.03960037 143 255 0
5.15726995 7.19095993 26.62089920 20 255 0
5.27609015 7.42461014 26.80150032 73 255 0
5.45075989 7.61164999 27.03100014 141 255 0
5.58306980 7.82966995 27.11059952 164 255 0
5.29132986 7.09741020 26.64439964 26 255 0
5.40716982 7.33302021 26.83440018 83 255 0
5.57056999 7.52567005 27.11310005 165 255 0
5.70198011 7.74346018 27.19249916 188 255 0
5.42163992 7.00619984 26.68889999 40 255 0
5.52287006 7.24989986 26.94689941 116 255 0
5.70144987 7.43459988 27.13789940 172 255 0
5.82200003 7.65705013 27.26589966 210 255 0
5.52333021 6.93329000 26.88089943 97 255 0
5.63522005 7.16877985 27.07019997 152 255 0
5.82180977 7.34857988 27.21279907 194 255 0
5.93473005 7.57382011 27.36969948 240 255 0
5.63811016 6.85206985 26.99589920 130 255 0
5.73994017 7.09209013 27.22369957 198 255 0
5.94991016 7.25890017 27.25000000 205 255 0
6.04398012 7.49235010 27.48430061 255 235 0
5.74340010 6.77697992 27.15069962 176 255 0
5.87838984 6.99656010 27.21299934 195 255 0
6.05115986 7.18252993 27.40489960 251 255 0
6.17015982 7.40396023 27.52239990 255 224 0
5.87178993 6.68701982 27.19020081 188 255 0
5.99555016 6.91305017 27.30080032 220 255 0
6.16641998 7.09947014 27.49290085 255 232 0
6.29605007 7.31573009 27.56180000 255 212 0
5.96534014 6.61959982 27.38570023 246 255 0
6.08037996 6.84815979 27.52499962 255 223 0
6.29242992 7.01110983 27.53380013 255 220 0
6.41190004 7.23197985 27.64109993 255 189 0
6.09422016 6.52931023 27.41790009 255 255 0
6.20608997 6.75998020 27.56660080 255 210 0
6.38907003 6.93779993 27.69160080 255 174 0
6.52438021 7.14991999 27.73119926 255 162 0
6.19077015 6.46002007 27.58620071 255 204 0
6.30296993 6.68852997 27.72489929 255 164 0
6.49618006 6.85939980 27.80209923 255 141 0
6.60760021 7.08142996 27.92799950 255 104 0
6.31593990 6.37211990 27.63050079 255 192 0
6.42719984 6.60128021 27.76880074 255 151 0
6.61990023 6.77248001 27.84650040 255 128 0
6.74102020 6.99022007 27.93390083 255 102 0
6.44076014 6.28439999 27.67609978 255 178 0
6.55108976 6.51422024 27.81410027 255 138 0
6.71963978 6.69822979 27.97830009 255 89 0
6.84217978 6.91407013 28.05579948 255 66 0
6.58522987 6.18378019 27.64660072 255 187 0
6.65397978 6.43955994 27.93689919 255 101 0
6.85281992 6.60641003 27.98710060 255 86 0
6.96407986 6.82833004 28.10250092 255 53 0
6.70987988 6.09607983 27.69510078 255 173 0
6.79780006 6.34070015 27.90850067 255 109 0
6.95303011 6.53217983 28.11129951 255 50 0
7.08561993 6.74279022 28.15040016 255 38 0
6.81304979 6.02247000 27.82080078 255 136 0
6.89886999 6.26721001 28.03359985 255 73 0
7.08575010 6.44057989 28.12280083 255 47 0
7.21842003 6.65181017 28.16189957 255 35 0
6.97156000 5.91241980 27.74869919 255 157 0
7.04301977 6.16801023 28.00819969 255 80 0
7.21861982 6.34881020 28.13579941 255 43 0
7.36328983 6.55482006 28.13699913 255 42 0
7.11755991 5.81050014 27.72579956 255 163 0
7.22208977 6.04769993 27.87140083 255 121 0
7.35459995 6.25525999 28.14089966 255 41 0
7.46319008 6.47991991 28.25510025 255 8 0
7.25004005 5.71744013 27.75169945 255 156 0
7.31004000 5.98212004 28.03790092 255 71 0
7.47267008 6.17150021 28.20389938 255 23 0
7.59286022 6.39035988 28.28019905 255 0 0
7.40574980 5.60895014 27.70420074 255 170 0
7.46762991 5.87447023 27.98010063 255 88 0
7.61807013 6.07260990 28.18400002 255 29 0
7.76382017 6.27991009 28.18540001 255 28 0
7.55951977 5.50163984 27.66790009 255 180 0
7.59283018 5.78635979 28.02709961 255 75 0
7.77678013 5.96614981 28.12849998 255 45 0
7.90080976 6.18634987 28.19519997 255 26 0
7.69596004 5.40574980 27.68950081 255 174 0
7.76139021 5.67176008 27.94510078 255 99 0
7.97542000 5.83705997 27.96369934 255 94 0
8.03141022 6.09596014 28.22520065 255 17 0
7.85731983 5.29323006 27.63850021 255 189 0
7.93467999 5.55405998 27.85619926 255 125 0
8.09766006 5.75060987 28.02379990 255 76 0
8.20584965 5.98289013 28.13649940 255 43 0
8.00710964 5.18831015 27.62649918 255 193 0
8.08687019 5.44911003 27.83419991 255 132 0
8.25979996 5.64155006 27.97459984 255 90 0
8.37162971 5.87396002 28.07780075 255 60 0
8.18338013 5.06564999 27.54269981 255 218 0
8.24973011 5.33747005 27.78660011 255 145 0
8.42304039 5.53166008 27.92749977 255 104 0
8.53162956 5.76776981 28.03960037 255 71 0
8.34475994 4.95281982 27.50720024 255 228 0
8.39676952 5.23544979 27.78689957 255 145 0
8.58738041 5.42094994 27.88249969 255 118 0
8.76760960 5.62130022 27.81130028 255 139 0
8.55084038 4.81000996 27.35499954 236 255 0
8.60284042 5.09674978 27.63369942 255 191 0
8.83819962 5.26035023 27.62089920 255 195 0
8.94906998 5.50303984 27.73240089 255 162 0
8.75953007 4.66528988 27.20579910 192 255 0
8.80801964 4.95833015 27.49270058 255 232 0
9.03520012 5.13017988 27.50839996 255 228 0
9.14690018 5.37570000 27.61969948 255 195 0
9.00226974 4.49759007 26.97809982 125 255 0
9.08003044 4.77798986 27.19129944 188 255 0
9.28219986 4.97072983 27.28120041 214 255 0
5.07184982 7.91231012 26.88730049 98 255 0
5.21321011 8.12724972 26.92760086 110 255 0
5.20229006 7.82115984 26.91650009 107 255 0
5.34341002 8.03625965 26.95669937 119 255 0
5.15538979 7.54371977 26.71820068 49 255 0
5.33248997 7.73013020 26.94709969 116 255 0
5.46591997 7.94820023 27.02639961 139 255 0
5.17407990 7.21323013 26.53050041 0 249 5
5.28695011 7.45171022 26.74990082 58 255 0
5.46245003 7.63922024 26.97900009 125 255 0
5.57988024 7.86365986 27.13649940 171 255 0
5.29996014 7.12478018 26.60300064 14 255 0
5.41644001 7.36083984 26.79269981 71 255 0
5.57673979 7.55575991 27.09059906 158 255 0
5.70850992 7.77363014 27.16959953 181 255 0
5.41240978 7.04503012 26.74519920 56 255 0
5.51917982 7.28495979 26.97349930 124 255 0
5.70561981 7.46549988 27.12509918 169 255 0
5.83687019 7.68374014 27.20409966 192 255 0
5.54175997 6.95431995 26.79089928 70 255 0
5.63125992 7.20407009 27.09679985 160 255 0
5.82389021 7.38045979 27.20969963 193 255 0
5.92850018 7.60924006 27.40519905 251 255 0
5.64157009 6.88286018 26.98390007 127 255 0
5.74585009 7.12191010 27.20149994 191 255 0
5.92623997 7.30348015 27.36350060 239 255 0
6.04848003 7.52331018 27.47109985 255 239 0
5.74490023 6.80916977 27.14839935 175 255 0
5.86544991 7.03697014 27.27829933 213 255 0
6.06190014 7.21006012 27.36310005 239 255 0
6.17461014 7.43484020 27.50919914 255 228 0
5.87315989 6.71917009 27.18790054 187 255 0
5.99283981 6.94758987 27.31749916 225 255 0
6.16370010 7.13380003 27.50919914 255 228 0
6.27220011 7.35904980 27.66469955 255 182 0
5.96888018 6.65052986 27.37369919 242 255 0
6.09317017 6.87395000 27.47400093 255 238 0
6.28945017 7.04549980 27.54999924 255 216 0
6.41383982 7.26385021 27.63769913 255 189 0
6.07773018 6.57328987 27.49270058 255 232 0
6.19153023 6.80164003 27.63129997 255 192 0
6.39316988 6.96866989 27.67889977 255 177 0
6.51129007 7.18867016 27.78549957 255 146 0
6.19430017 6.49096012 27.57419968 255 208 0
6.31630993 6.71394014 27.67410088 255 179 0
6.48788977 6.89680004 27.83740044 255 130 0
6.63505983 7.10165977 27.82859993 255 133 0
6.31940985 6.40297985 27.61849976 255 195 0
6.41884995 6.63941002 27.80439949 255 140 0
6.61375999 6.80870008 27.87220001 255 121 0
6.75850010 7.01484013 27.87299919 255 120 0
6.45629978 6.30716991 27.61619949 255 196 0
6.53483009 6.55699015 27.87820053 255 118 0
6.73418999 6.72349977 27.92740059 255 104 0
6.86811018 6.93462992 27.96640015 255 93 0
6.60845995 6.20115995 27.55830002 255 213 0
6.66804981 6.46429014 27.88649940 255 116 0
6.84606981 6.64294004 28.01250076 255 79 0
6.96838999 6.85909986 28.08939934 255 56 0
6.71311998 6.12661982 27.68309975 255 176 0
6.80145979 6.37140989 27.89620018 255 113 0
6.99283981 6.54352999 27.97520065 255 90 0
7.08987999 6.77349997 28.13739967 255 42 0
6.81632996 6.05306005 27.80879974 255 139 0
6.92421007 6.28489017 27.94540024 255 99 0
7.10095978 6.46507978 28.07220078 255 62 0
7.23420000 6.67668009 28.11100006 255 50 0
6.97465992 5.94275999 27.73679924 255 160 0
7.06878996 6.18514013 27.92020035 255 106 0
7.23690987 6.37140989 28.07589912 255 61 0
7.35548019 6.59112978 28.16180038 255 35 0
7.15091991 5.82038021 27.61009979 255 198 0
7.20553017 6.09004021 27.92510033 255 105 0
7.35835981 6.28567982 28.12829971 255 45 0
7.47636986 6.50579977 28.21389961 255 20 0
7.27557993 5.73237991 27.66460037 255 182 0
7.31343985 6.01246023 28.02560043 255 75 0
7.50056982 6.18839979 28.11619949 255 49 0
7.62166977 6.40814018 28.19219971 255 26 0
7.42298985 5.62909985 27.64539909 255 187 0
7.44706011 5.91917992 28.04280090 255 71 0
7.63403988 6.09588003 28.13389969 255 44 0
7.76763010 6.30996990 28.17230034 255 32 0
7.58584976 5.51539993 27.58130074 255 206 0
7.62948990 5.79582024 27.91209984 255 109 0
7.79601002 5.98721981 28.06929970 255 62 0
7.91423988 6.21127987 28.15430069 255 38 0
7.73484993 5.41089010 27.56590080 255 210 0
7.80482006 5.67659998 27.81189919 255 139 0
7.97862005 5.86663008 27.95100021 255 97 0
8.03507042 6.12580013 28.21220016 255 20 0
7.87208986 5.31421995 27.58950043 255 204 0
7.96290016 5.56783009 27.76969910 255 151 0
8.10081959 5.78012991 28.01119995 255 80 0
8.22616005 6.00365019 28.07719994 255 60 0
8.00938034 5.21745014 27.61459923 255 196 0
8.12522984 5.45628977 27.72030067 255 166 0
8.31647015 5.64013004 27.81439972 255 138 0
8.42644024 5.87619019 27.92650032 255 104 0
8.22095966 5.07061005 27.42950058 255 251 0
8.27873993 5.35009003 27.70059967 255 171 0
8.46693039 5.53713989 27.80459976 255 140 0
8.56278992 5.78206015 27.95310020 255 97 0
8.39937019 4.94597006 27.34849930 234 255 0
8.45318031 5.23071003 27.62789917 255 192 0
8.65977955 5.40954018 27.68680000 255 175 0
8.81322956 5.62711000 27.68849945 255 174 0
8.62302971 4.79069996 27.15110016 176 255 0
8.61534023 5.11884022 27.59410095 255 202 0
8.89733028 5.25569010 27.46229935 255 241 0
8.98077011 5.51578999 27.64649963 255 187 0
8.81569958 4.65616989 27.04829979 146 255 0
8.86598969 4.95134020 27.33469963 230 255 0
9.08069038 5.13287020 27.38680077 246 255 0
9.16413021 5.39572001 27.57029915 255 210 0
9.02773952 4.50844002 26.90279961 103 255 0
9.09937954 4.79430008 27.13380051 171 255 0
5.07082987 7.93338013 26.87980080 96 255 0
5.21914005 8.14587021 26.88019943 96 255 0
5.20128012 7.84225988 26.90900040 105 255 0
5.34250021 8.05739975 26.94869995 116 255 0
5.14744997 7.56814003 26.75060081 58 255 0
5.33150005 7.75124979 26.93959999 114 255 0
5.47247982 7.96655989 26.97920036 125 255 0
5.16753006 7.23684978 26.55360031 0 255 0
5.28565979 7.47246981 26.74300003 56 255 0
5.45225000 7.66480017 27.02059937 138 255 0
5.59453011 7.87893009 27.05030060 146 255 0
5.29155016 7.14979982 26.63590050 24 255 0
5.40978003 7.38471985 26.81520081 77 255 0
5.56629992 7.58176994 27.13199997 171 255 0
5.70579004 7.79591990 27.17140007 182 255 0
5.42356014 7.05742979 26.67060089 35 255 0
5.53307009 7.29751015 26.88859940 99 255 0
5.69484997 7.49179983 27.16650009 180 255 0
5.82585001 7.70958996 27.24480057 204 255 0
5.54041004 6.97510004 26.78470039 68 255 0
5.64584017 7.21644020 27.01199913 135 255 0
5.80052996 7.41333008 27.30949974 223 255 0
5.93868017 7.62654018 27.34869957 234 255 0
5.63270998 6.90913010 27.01659966 136 255 0
5.74301004 7.14459991 27.20450020 192 255 0
5.94473982 7.31554985 27.26880074 211 255 0
6.04584980 7.54625988 27.47299957 255 238 0
5.73793983 6.83458996 27.17140007 182 255 0
5.87300014 7.05374002 27.23279953 200 255 0
6.05468988 7.23521996 27.38479996 245 255 0
6.17420006 7.45687008 27.50139999 255 230 0
5.87222004 6.74064016 27.18180084 185 255 0
5.99209976 6.96928978 27.31080055 223 255 0
6.17227983 7.15112019 27.46319962 255 241 0
6.30004978 7.36860991 27.54089928 255 218 0
5.99379015 6.65515995 27.25169945 206 255 0
6.10811996 6.88671017 27.39970016 249 255 0
6.29600000 7.06389999 27.51390076 255 226 0
6.40390015 7.29052019 27.66850090 255 180 0
6.09697008 6.58198977 27.39990044 249 255 0
6.20941019 6.81298018 27.54759979 255 216 0
6.39285994 6.99097013 27.67160034 255 180 0
6.53842020 7.19840002 27.67189980 255 180 0
6.19375992 6.51311016 27.56819916 255 210 0
6.30651999 6.74190998 27.70590019 255 169 0
6.50009012 6.91277981 27.78219986 255 147 0
6.61458015 7.13386011 27.89760017 255 113 0
6.30952978 6.43148994 27.65080070 255 186 0
6.44042015 6.64879990 27.71150017 255 168 0
6.62378979 6.82585001 27.82670021 255 134 0
6.74533987 7.04371023 27.91309929 255 109 0
6.45335007 6.33096981 27.61980057 255 195 0
6.56704998 6.56002998 27.74729919 255 157 0
6.72369003 6.75189018 27.95849991 255 95 0
6.85738993 6.96260023 27.99690056 255 84 0
6.58799982 6.23655987 27.62870026 255 192 0
6.66787004 6.48693991 27.87989998 255 118 0
6.85677004 6.65993023 27.96730042 255 92 0
6.96854019 6.88207006 28.08180046 255 59 0
6.69224024 6.16262007 27.75329971 255 156 0
6.77761984 6.40849018 27.97529984 255 90 0
6.97907019 6.57385015 28.01560020 255 78 0
7.10134983 6.79093981 28.09180069 255 56 0
6.83689022 6.06137991 27.72699928 255 163 0
6.92136002 6.30924988 27.94840050 255 98 0
7.10099983 6.48797989 28.06520081 255 64 0
7.23433018 6.69962978 28.10339928 255 53 0
6.95271015 5.97956991 27.80649948 255 140 0
7.02437019 6.23497009 28.06509972 255 64 0
7.22253990 6.40233994 28.11610031 255 49 0
7.36746979 6.60817003 28.11639977 255 49 0
7.08699989 5.88523006 27.82119942 255 136 0
7.19115019 6.12137985 27.96579933 255 93 0
7.34369993 6.31692982 28.16830063 255 33 0
7.45240021 6.54123020 28.28149986 255 0 0
7.25241995 5.76974010 27.73399925 255 161 0
7.31332016 6.03523016 28.01919937 255 77 0
7.48855019 6.21812010 28.14669991 255 40 0
7.60947990 6.43752003 28.22220039 255 17 0
7.37329006 5.68439007 27.79890060 255 142 0
7.44693995 5.94194984 28.03639984 255 72 0
7.62174988 6.12580013 28.16440010 255 35 0
7.78353024 6.32472992 28.11809921 255 48 0
7.57328987 5.54525995 27.61289978 255 197 0
7.59281015 5.84098005 28.01779938 255 77 0
7.78022003 6.01896000 28.10899925 255 50 0
7.88852978 6.24763012 28.22130013 255 17 0
7.70990992 5.44907999 27.63459969 255 190 0
7.77649021 5.71626997 27.88929939 255 115 0
7.95269012 5.90387011 28.01840019 255 77 0
8.03518963 6.14876986 28.20479965 255 23 0
7.84662008 5.35279989 27.65800095 255 183 0
7.90858984 5.62368011 27.92110062 255 106 0
8.10062027 5.80269003 28.00429916 255 82 0
8.16905022 6.05651999 28.22699928 255 16 0
8.00860023 5.23926020 27.60890007 255 198 0
8.09877968 5.49453020 27.78790092 255 145 0
8.26253033 5.69329023 27.95509911 255 96 0
8.35774040 5.93498993 28.10339928 255 53 0
8.14274025 5.14460993 27.64489937 255 187 0
8.25170994 5.38861990 27.76810074 255 151 0
8.42553997 5.58304977 27.90800095 255 110 0
8.53464031 5.81936979 28.01910019 255 77 0
8.31945992 5.02088022 27.56320000 255 212 0
8.38854027 5.29278994 27.79599953 255 143 0
8.58965015 5.47198009 27.86310005 255 123 0
8.76998997 5.67188978 27.79089928 255 145 0
8.54127979 4.86628008 27.36499977 239 255 0
8.59051991 5.15566015 27.65180016 255 186 0
8.82561016 5.31856012 27.63789940 255 189 0
8.93667984 5.56099987 27.74839973 255 157 0
8.74930954 4.72097015 27.21570015 195 255 0
8.79848003 5.01451015 27.50160027 255 230 0
9.00755024 5.19647980 27.56170082 255 212 0
9.13387012 5.43324995 27.63559914 255 190 0
9.00162983 4.54526997 26.96080017 120 255 0
9.04815006 4.84659004 27.25460052 207 255 0
9.23505020 5.04721022 27.37940025 243 255 0
5.07997990 7.96853018 26.84359932 85 255 0
5.21654987 8.18581963 26.91239929 106 255 0
5.20559978 7.87970018 26.90229988 103 255 0
5.35924006 8.09014988 26.87290001 94 255 0
5.15170002 7.60542011 26.74419975 56 255 0
5.31997013 7.79637003 27.02109909 138 255 0
5.46946001 8.00706005 27.01129913 135 255 0
5.17003012 7.27504015 26.55730057 1 255 0
5.28991985 7.50976992 26.73649979 54 255 0
5.45853996 7.70151997 27.00399971 133 255 0
5.58364010 7.92284012 27.12140083 167 255 0
5.28723001 7.19272995 26.67869949 37 255 0
5.41412020 7.42212009 26.80870056 75 255 0
5.58039999 7.61479998 27.07629967 154 255 0
5.70241022 7.83704996 27.20330048 192 255 0
5.41358995 7.10425997 26.74259949 56 255 0
5.52260017 7.34366989 26.96019936 120 255 0
5.69947004 7.52961016 27.15970039 179 255 0
5.83049011 7.74749994 27.23769951 201 255 0
5.53000021 7.02245998 26.85650063 89 255 0
5.64266014 7.25860977 27.04450035 145 255 0
5.81961012 7.44401979 27.23450089 201 255 0
5.92430019 7.67292023 27.42900085 255 251 0
5.62003994 6.95842981 27.09790039 160 255 0
5.74772978 7.18245983 27.19799995 190 255 0
5.93256998 7.36222982 27.33959961 231 255 0
6.05072021 7.58444977 27.46579933 255 240 0
5.75663996 6.86300993 27.09720039 160 255 0
5.87156010 7.09533978 27.25530052 207 255 0
6.05954981 7.27332020 27.37800026 243 255 0
6.17912006 7.49511003 27.49419975 255 232 0
5.86258984 6.78824997 27.24340057 203 255 0
5.98838997 7.01241016 27.34300041 233 255 0
6.16595984 7.19526005 27.50469971 255 229 0
6.27702999 7.41977978 27.64959908 255 186 0
5.96459007 6.71616983 27.39999962 249 255 0
6.08876991 6.93942022 27.49939919 255 231 0
6.28242016 7.11206007 27.58410072 255 205 0
6.40899992 7.32897997 27.66119957 255 183 0
6.07999992 6.63500023 27.48999977 255 233 0
6.18717003 6.86777020 27.65670013 255 184 0
6.38846016 7.03457022 27.70319939 255 170 0
6.51635981 7.24975014 27.77050018 255 151 0
6.18079996 6.56372023 27.63879967 255 189 0
6.31410980 6.77896976 27.68969917 255 174 0
6.50537014 6.95136976 27.77519989 255 149 0
6.62752008 7.16895008 27.86149979 255 124 0
6.31478977 6.46992016 27.64450073 255 187 0
6.41669989 6.70495987 27.81999969 255 136 0
6.60635996 6.87693024 27.90589905 255 110 0
6.75070000 7.08248997 27.90579987 255 111 0
6.46822977 6.36286020 27.57519913 255 208 0
6.55001020 6.61226988 27.82679939 255 134 0
6.73954010 6.78499985 27.91329956 255 109 0
6.87353992 6.99623013 27.95140076 255 97 0
6.59327984 6.27502012 27.62229919 255 194 0
6.67331982 6.52567005 27.87319946 255 120 0
6.84092999 6.71058989 28.03650093 255 72 0
6.96309996 6.92649984 28.11249924 255 50 0
6.71796989 6.18739986 27.67079926 255 180 0
6.79625988 6.43927002 27.92099953 255 106 0
6.99828005 6.60516024 27.96109962 255 94 0
7.11815977 6.82432985 28.04649925 255 69 0
6.83446980 6.10531998 27.74909973 255 157 0
6.92959976 6.34643984 27.93219948 255 103 0
7.09819984 6.53170013 28.08659935 255 57 0
7.25432014 6.73142004 28.04870033 255 68 0
6.96891022 6.01099014 27.76230049 255 153 0
7.06309986 6.25343990 27.94490051 255 99 0
7.22820997 6.44142008 28.10899925 255 50 0
7.36129999 6.65329981 28.14679909 255 40 0
7.10349989 5.91650009 27.77700043 255 148 0
7.18546009 6.16732979 27.99679947 255 84 0
7.36412001 6.34776020 28.11420059 255 49 0
7.48229980 6.56812000 28.19890022 255 24 0
7.25790024 5.80844021 27.72750092 255 163 0
7.30741978 6.08144999 28.05010033 255 68 0
7.50629997 6.25043011 28.10210037 255 53 0
7.65221024 6.45761013 28.10219955 255 53 0
7.41624022 5.69761992 27.67060089 255 180 0
7.42897987 5.99581003 28.10460091 255 52 0
7.65208006 6.15092993 28.08239937 255 59 0
7.78921986 6.36393976 28.11059952 255 50 0
7.59047985 5.57586002 27.56900024 255 210 0
7.63781977 5.85536003 27.88960075 255 115 0
7.80164003 6.04911995 28.05520058 255 67 0
7.92004013 6.27341986 28.13929939 255 42 0
7.72440004 5.48160982 27.60020065 255 201 0
7.80991983 5.73773003 27.79859924 255 142 0
7.98400021 5.92818022 27.93689919 255 101 0
8.04098988 6.18810987 28.19720078 255 25 0
7.86441994 5.38313007 27.61429977 255 196 0
7.94265985 5.64478016 27.83069992 255 133 0
8.12267017 5.83233976 27.95079994 255 97 0
8.23180962 6.06555986 28.06220055 255 65 0
7.99836016 5.28877020 27.64859962 255 186 0
8.10435963 5.53347015 27.78100014 255 148 0
8.29489040 5.71684980 27.87409973 255 120 0
8.43177032 5.93766022 27.91139984 255 109 0
8.21564960 5.13721991 27.44490051 255 246 0
8.25730038 5.42757988 27.76110077 255 154 0
8.47202015 5.59824991 27.79050064 255 145 0
8.60993958 5.82106018 27.82780075 255 133 0
8.40680027 5.00348997 27.32710075 228 255 0
8.45790005 5.29129982 27.61470032 255 196 0
8.66462040 5.47030020 27.67270088 255 179 0
8.81807995 5.68787003 27.67340088 255 179 0
8.59671974 4.87051010 27.22120094 197 255 0
8.62341022 5.17714977 27.57169914 255 209 0
8.87347031 5.33246994 27.52109909 255 224 0
8.97109032 5.58431005 27.66780090 255 180 0
8.83625984 4.70336008 26.99049950 129 255 0
8.87360001 5.00883007 27.31240082 224 255 0
9.05615044 5.20979977 27.44529915 255 246 0
9.19812965 5.43999004 27.48259926 255 235 0
9.05873013 4.54782009 26.81789970 78 255 0
9.09953976 4.85569000 27.12960052 170 255 0
5.10534000 7.99273014 26.81019974 76 255 0
5.23535013 8.21321964 26.91799927 107 255 0
5.22449017 7.90709019 26.90839958 105 255 0
5.37805986 8.11752987 26.87859917 96 255 0
5.16239977 7.63730001 26.79980087 73 255 0
5.34595013 7.82052994 26.98810005 128 255 0
5.49569988 8.03170967 26.97800064 125 255 0
5.16938019 7.31523991 26.68199921 38 255 0
5.30718994 7.53790998 26.75300026 59 255 0
5.47013998 7.73277998 27.04949951 146 255 0
5.60253000 7.95067978 27.12739944 169 255 0
5.30116987 7.22327995 26.71520042 47 255 0
5.40984011 7.46305990 26.94269943 115 255 0
5.58222008 7.65119982 27.17079926 182 255 0
5.73124981 7.86083984 27.16060066 179 255 0
5.42557001 7.13631010 26.78899956 69 255 0
5.55654001 7.36246014 26.88909912 99 255 0
5.71056986 7.56158018 27.20529938 192 255 0
