17.18600082 42.60670090 30.51269913 98 255 0
16.85070038 42.07229996 30.24790001 88 255 0
16.98270035 42.23949814 30.34339905 91 255 0
17.17090034 42.36410141 30.47270012 97 255 0
17.29579926 42.52970123 30.53440094 99 255 0
16.97039986 41.99219894 30.32939911 91 255 0
17.09199905 42.16400146 30.34569931 91 255 0
17.27210045 42.29430008 30.40620041 94 255 0
17.39690018 42.46080017 30.46809959 97 255 0
17.09779930 41.90909958 30.49160004 97 255 0
17.22100067 42.07709885 30.53779984 99 255 0
17.39349937 42.20930099 30.54940033 100 255 0
17.51829910 42.37269974 30.63120079 103 255 0
17.20269966 41.83610153 30.46660042 97 255 0
17.30620003 42.01559830 30.31410027 91 255 0
17.48789978 42.14459991 30.40570068 94 255 0
17.61319923 42.30979919 30.48760033 97 255 0
17.30990028 41.76219940 30.46260071 96 255 0
17.41799927 41.93870163 30.34970093 92 255 0
17.60560036 42.06240082 30.53160095 99 255 0
17.72130013 42.23419952 30.50410080 97 255 0
17.41519928 41.68889999 30.43989944 95 255 0
17.52409935 41.86500168 30.32690048 91 255 0
17.72200012 41.98099899 30.66880035 104 255 0
17.83040047 42.15760040 30.54159927 99 255 0
17.53910065 41.60910034 30.63730049 103 255 0
17.65710068 41.77690125 30.65379906 103 255 0
17.82600021 41.90890121 30.64789963 103 255 0
17.94219971 42.07770157 30.64019966 103 255 0
17.64410019 41.53639984 30.62689972 103 255 0
17.76329994 41.70360184 30.66340065 103 255 0
17.92690086 41.83940125 30.56819916 100 255 0
18.04360008 42.00899887 30.56060028 100 255 0
17.76860046 41.45830154 30.89690018 112 255 0
17.87179947 41.62919998 30.71389961 106 255 0
18.03580093 41.76359940 30.62929916 103 255 0
18.15209961 41.93230057 30.62159920 102 255 0
17.85659981 41.39030075 30.64940071 103 255 0
17.97340012 41.55820084 30.65589905 103 255 0
18.13909912 41.69229889 30.58180046 100 255 0
18.25740051 41.85910034 30.62400055 102 255 0
17.95709991 41.31850052 30.56240082 100 255 0
18.07909966 41.48519897 30.66880035 104 255 0
18.24729919 41.61700058 30.65519905 103 255 0
18.36330032 41.78509903 30.64739990 103 255 0
18.06110001 41.24560165 30.52650070 99 255 0
18.17819977 41.41490173 30.52300072 98 255 0
18.34970093 41.54639816 30.56979942 100 255 0
18.46730042 41.71400070 30.60210037 101 255 0
18.16799927 41.17240143 30.55159950 100 255 0
18.28330040 41.34189987 30.49819946 97 255 0
18.45000076 41.47819901 30.32570076 91 255 0
18.57150078 41.64329910 30.52790070 99 255 0
18.27090073 41.09880066 30.46789932 97 255 0
18.38789940 41.26890182 30.44449997 95 255 0
18.55900002 41.40200043 30.45240021 96 255 0
18.67690086 41.57120132 30.48469925 97 255 0
18.38019943 41.02659988 30.58519936 101 255 0
18.49810028 41.19499969 30.65180016 103 255 0
18.66580009 41.32770157 30.53030014 99 255 0
18.78280067 41.49440002 30.64259911 103 255 0
18.48200035 40.95090103 30.40379906 94 255 0
18.60070038 41.12170029 30.46030045 96 255 0
18.77149963 41.25510025 30.40940094 94 255 0
18.88769913 41.42169952 30.64170074 103 255 0
18.58830070 40.87670135 30.38339996 93 255 0
18.70680046 41.04800034 30.44000053 95 255 0
18.87829971 41.18130112 30.36960030 93 255 0
18.99469948 41.35070038 30.50189972 97 255 0
18.69499969 40.80250168 30.37420082 93 255 0
18.81360054 40.97200012 30.27070045 89 255 0
18.98679924 41.10680008 30.25090027 88 255 0
19.10390091 41.27840042 30.35330009 92 255 0
18.80190086 40.72769928 30.34609985 91 255 0
18.91939926 40.90100098 30.45260048 96 255 0
19.09560013 41.03170013 30.20339966 86 255 0
19.20849991 41.20429993 30.43569946 95 255 0
18.90979958 40.65010071 30.24920082 88 255 0
19.03079987 40.82030106 30.15570068 85 255 0
19.20450020 40.95650101 30.17709923 85 255 0
19.32029915 41.13010025 30.28940010 90 255 0
19.01580048 40.57949829 30.35330009 92 255 0
19.13809967 40.74639893 30.19989967 86 255 0
19.31299973 40.88140106 30.17189980 85 255 0
19.42460060 41.05640030 30.36400032 92 255 0
19.12770081 40.49599838 30.14889908 85 255 0
19.25029945 40.66719818 30.07539940 82 255 0
19.41909981 40.80770111 30.22780037 88 255 0
19.53960037 40.98030090 30.21010017 87 255 0
19.23579979 40.42150116 30.16539955 85 255 0
19.35799980 40.59299850 30.11190033 83 255 0
19.52890015 40.73189926 30.19490051 86 255 0
19.64469910 40.90650177 30.26709938 89 255 0
19.34140015 40.35039902 30.24290085 88 255 0
19.47680092 40.50820160 29.90010071 75 255 0
19.63990021 40.65539932 30.15329933 85 255 0
19.76329994 40.82809830 30.10569954 83 255 0
19.45229912 40.27159882 30.18190002 85 255 0
19.57950020 40.43870163 30.04870033 80 255 0
19.76309967 40.57130051 29.93330002 77 255 0
19.88719940 40.74700165 29.90579987 75 255 0
19.56879997 40.18629837 30.03240013 80 255 0
19.70190048 40.35139847 29.83950043 73 255 0
19.89089966 40.48400116 29.69490051 68 255 0
20.00930023 40.66579819 29.76709938 70 255 0
19.67569923 40.11360168 30.08349991 82 255 0
19.80979919 40.27719879 29.89069939 75 255 0
20.01440048 40.39929962 29.55769920 62 255 0
20.13689995 40.58169937 29.59000015 63 255 0
19.78989983 40.03219986 30.01630020 80 255 0
19.92000008 40.20090103 29.90320015 75 255 0
20.13820076 40.31430054 29.44169998 58 255 0
20.25769997 40.50000000 29.51379967 61 255 0
19.89699936 39.95899963 30.05970001 81 255 0
20.05060005 40.10760117 29.66830063 66 255 0
20.25810051 40.23170090 29.38689995 56 255 0
20.36960030 40.42240143 29.53840065 62 255 0
20.03190041 39.85639954 29.75659943 70 255 0
20.18020058 40.01549911 29.48480034 59 255 0
20.36499977 40.15739822 29.47240067 59 255 0
20.48670006 40.34220123 29.51449966 61 255 0
20.15360069 39.76869965 29.65379906 66 255 0
20.29520035 39.93569946 29.48139954 59 255 0
20.47820091 40.07899857 29.48950005 59 255 0
20.64690018 40.24039841 29.12500000 46 255 0
20.30260086 39.65430069 29.28479958 52 255 0
20.41869926 39.84909821 29.39999962 56 255 0
20.60849953 39.98970032 29.35919952 55 255 0
20.75040054 40.16659927 29.24279976 50 255 0
20.44370079 39.54909897 29.04660034 43 255 0
20.53350067 39.76950073 29.40909958 56 255 0
20.75169945 39.89179993 29.14139938 47 255 0
20.82640076 40.10739899 29.55940056 62 255 0
20.57200050 39.45719910 28.95859909 40 255 0
20.65539932 39.68429947 29.36020088 55 255 0
20.88269997 39.80170059 29.04409981 43 255 0
21.06189919 39.96429825 28.69090080 29 255 0
20.68309975 39.38180161 29.03009987 42 255 0
20.81909943 39.56629944 28.98679924 41 255 0
21.02070045 39.70709991 28.90880013 38 255 0
21.23390007 39.85340118 28.34900093 17 255 0
20.83399963 39.26929855 28.77729988 32 255 0
20.98579979 39.44649887 28.63540077 27 255 0
21.17939949 39.59880066 28.64719963 28 255 0
21.37319946 39.75970078 28.25569916 13 255 0
20.95619965 39.18389893 28.77269936 32 255 0
21.12299919 39.34999847 28.53260040 23 255 0
21.37500000 39.46599960 28.17119980 10 255 0
21.53300095 39.65439987 28.04599953 5 255 0
21.16510010 39.02030182 28.15029907 9 255 0
21.30550003 39.21860123 28.13649940 8 255 0
21.54150009 39.35229874 27.92399979 0 255 0
21.66970062 39.56169891 27.99550056 3 255 0
21.37459946 38.85800171 27.59029961 0 243 11
21.44510078 39.12080002 28.05710030 5 255 0
21.70509911 39.24029922 27.71829987 0 248 6
21.83469963 39.45280075 27.78969955 0 251 3
21.52400017 38.75030136 27.47419930 0 239 15
21.68490028 38.94609833 27.37210083 0 235 19
21.84460068 39.14419937 27.67140007 0 246 8
21.99580002 39.34579849 27.62520027 0 244 10
21.64839935 38.66490173 27.52630043 0 240 14
21.77319908 38.88800049 27.63949966 0 245 9
22.02770042 39.01919937 27.39159966 0 236 18
22.14450073 39.24560165 27.54089928 0 241 13
21.84679985 38.51530075 27.14060020 0 226 28
21.93420029 38.77420044 27.47789955 0 239 15
22.17060089 38.92079926 27.34840012 0 234 20
22.32180023 39.12870026 27.32189941 0 233 21
21.98019981 38.42250061 27.15710068 0 227 27
22.10510063 38.65309906 27.27939987 0 231 23
22.32399940 38.81529999 27.25819969 0 231 23
22.47640038 39.02470016 27.23180008 0 230 24
22.14229965 38.30509949 27.01959991 0 222 32
22.28650093 38.52429962 27.04439926 0 222 32
22.49880028 38.69559860 27.07279968 0 224 30
22.62420082 38.92440033 27.18239975 0 228 26
22.38500023 38.11989975 26.47690010 0 201 53
22.47159958 38.39300156 26.81200027 0 213 41
22.67869949 38.57239914 26.87999916 0 216 38
22.81590080 38.79830170 26.94099998 0 219 35
22.54290009 38.00730133 26.40270042 0 198 56
22.68650055 38.23949814 26.45630074 0 201 53
22.87859917 38.43579865 26.61240005 0 206 48
22.98030090 38.68790054 26.83749962 0 215 39
22.64809990 37.93889999 26.59099960 0 205 49
22.79840088 38.16350174 26.60589981 0 206 48
23.05850029 38.31250000 26.45369911 0 200 54
23.24909973 38.51520157 26.30229950 0 195 59
22.81299973 37.82049942 26.49119949 0 201 53
22.96450043 38.04690170 26.50600052 0 202 52
23.22730064 38.19649887 26.35510063 0 196 58
23.45299911 38.38059998 26.06940079 0 186 68
23.08690071 37.61240005 25.91320038 0 180 74
23.09000015 37.96049881 26.59079933 0 205 49
23.43289948 38.05590057 26.11470032 0 187 67
23.63649940 38.25790024 25.93530083 0 180 74
23.25209999 37.49470139 25.84770012 0 177 77
23.40950012 37.72999954 25.86219978 0 178 76
23.64959908 37.90769958 25.84849930 0 177 77
23.82469940 38.13219833 25.79409981 0 175 79
23.82830048 37.78499985 25.74780083 0 174 80
23.93359947 38.05429840 25.96080017 0 182 72
24.10600090 37.93799973 25.89030075 0 179 75
24.25559998 37.83549881 25.90749931 0 180 74
24.45779991 37.70080185 25.74650002 0 174 80
24.62030029 37.59030151 25.72990036 0 173 81
24.77179909 37.48640060 25.75279999 0 174 80
9.71442986 46.91370010 25.90710068 0 180 74
9.91304016 47.15250015 25.95450020 0 181 73
10.18140030 47.34069824 25.95940018 0 181 73
10.38519955 47.57170105 26.02319908 0 184 70
9.89783001 46.78919983 25.91130066 0 180 74
10.07929993 47.03749847 25.92370033 0 180 74
10.34689999 47.22499847 25.92980003 0 180 74
10.55340004 47.45270157 26.00270081 0 183 71
10.05259991 46.68239975 25.85610008 0 177 77
10.24930000 46.91999817 25.90390015 0 180 74
10.53110027 47.09609985 25.94650078 0 181 73
10.73610020 47.32289886 26.01980019 0 184 70
10.23890018 46.55619812 25.87360001 0 178 76
10.44970036 46.78250122 25.95719910 0 181 73
10.69950008 46.97840118 25.93020058 0 180 74
10.90340042 47.20460129 26.00370026 0 183 71
10.42430019 46.43059921 25.89360046 0 179 75
10.61839962 46.66590118 25.94199944 0 181 73
10.88220024 46.85070038 25.95159912 0 181 73
11.06659985 47.08929825 25.98080063 0 183 71
10.59360027 46.31499863 25.88019943 0 178 76
10.76819992 46.56190109 25.88400078 0 179 75
11.04959965 46.73369980 25.93959999 0 180 74
11.23309994 46.97159958 25.96890068 0 182 72
10.75879955 46.20199966 25.85989952 0 177 77
10.95100021 46.43610001 25.90870094 0 180 74
11.21650028 46.61709976 25.92959976 0 180 74
11.39920044 46.85419846 25.95910072 0 181 73
10.94200039 46.07799911 25.88680077 0 179 75
11.14009953 46.30630112 25.95389938 0 181 73
11.37950039 46.50320053 25.91270065 0 180 74
11.57499981 46.72949982 25.97850037 0 182 72
11.10260010 45.96789932 25.86160088 0 178 76
11.28209972 46.20729828 25.88369942 0 179 75
11.57629967 46.36560059 25.98870087 0 183 71
11.75660038 46.60029984 26.01829910 0 183 71
11.53170013 45.69459915 26.53030014 0 203 51
11.51439953 46.04919815 26.05179977 0 185 69
11.85159969 46.17250061 26.28630066 0 194 60
11.98270035 46.43730164 26.18829918 0 190 64
11.72509956 45.56510162 26.61219978 0 206 48
11.74380016 45.89319992 26.22330093 0 192 62
12.11559963 45.98749924 26.57010078 0 204 50
12.28590012 46.21580124 26.59070015 0 205 49
11.98480034 45.39559937 26.88019943 0 216 38
12.16969967 45.60889816 26.94879913 0 219 35
12.31400013 45.84870148 26.68320084 0 209 45
12.52630043 46.04150009 26.83259964 0 214 40
12.20349979 45.25139999 27.05089951 0 222 32
12.32069969 45.50460052 26.93560028 0 219 35
12.66129971 45.60490036 27.24220085 0 230 24
12.84869957 45.80469894 27.33670044 0 234 20
12.44550037 45.09339905 27.29870033 0 232 22
12.50959969 45.37540054 27.03510094 0 222 32
12.89840031 45.43870163 27.50139999 0 240 14
13.03730011 45.66930008 27.45730019 0 238 16
12.60000038 44.98820114 27.30900002 0 232 22
12.79679966 45.18249893 27.43409920 0 237 17
13.02579975 45.34989929 27.43899918 0 237 17
13.18840027 45.56240082 27.46910095 0 239 15
12.78530025 44.86470032 27.41419983 0 237 17
12.95530033 45.07350159 27.46540070 0 238 16
13.35700035 45.11729813 28.02140045 4 255 0
13.43649960 45.38130188 27.79980087 0 251 3
13.17459965 44.62020111 28.14760017 9 255 0
13.28649998 44.85250092 28.04039955 5 255 0
13.51529980 45.00669861 28.07620049 6 255 0
13.69060040 45.19520187 28.17189980 10 255 0
13.33040047 44.51499939 28.19429970 11 255 0
13.46860027 44.72850037 28.17110062 10 255 0
13.61600018 44.93669891 27.94519997 2 255 0
13.76119995 45.14970016 27.93799973 1 255 0
13.49400043 44.40549850 28.27120018 14 255 0
13.59410000 44.64120102 28.12560081 8 255 0
13.85280037 44.77059937 28.27650070 14 255 0
13.94950008 45.01380157 28.10919952 8 255 0
13.69050026 44.27669907 28.46330070 21 255 0
13.76449966 44.52489853 28.23250008 12 255 0
14.05770016 44.62710190 28.51709938 23 255 0
14.18680000 44.83980179 28.47200012 21 255 0
13.90639973 44.13700104 28.73380089 31 255 0
14.04189968 44.33980179 28.71999931 31 255 0
14.21959972 44.51390076 28.61860085 26 255 0
14.29710007 44.76369858 28.38380051 18 255 0
14.08790016 44.01779938 28.90320015 38 255 0
14.20839977 44.22639847 28.84199905 35 255 0
14.41020012 44.38029861 28.83620071 35 255 0
14.46749973 44.64110184 28.52479935 23 255 0
14.22929955 43.92210007 28.94199944 39 255 0
14.33660030 44.13769913 28.83300018 35 255 0
14.55770016 44.27730179 28.90419960 38 255 0
14.61149979 44.53889847 28.57279968 25 255 0
14.37749958 43.82260132 29.01110077 41 255 0
14.50730038 44.02180099 28.98769951 41 255 0
14.65340042 44.21089935 28.77339935 32 255 0
14.85680008 44.35739899 29.04299927 43 255 0
14.49160004 43.74290085 28.95770073 40 255 0
14.63140011 43.93579865 28.97249985 40 255 0
14.80910015 44.10200119 28.88290024 37 255 0
15.00020027 44.25510025 29.11490059 45 255 0
14.63809967 43.64459991 29.03009987 42 255 0
14.79590034 43.82410049 29.12179947 46 255 0
14.99240017 43.97359848 29.11930084 46 255 0
15.11380005 44.17620087 29.06380081 44 255 0
14.78559971 43.54589844 29.11400032 45 255 0
14.96259975 43.71120071 29.29249954 52 255 0
15.16979980 43.84930038 29.34880066 54 255 0
15.26609993 44.06689835 29.18720055 48 255 0
14.95489979 43.43519974 29.29619980 53 255 0
15.13109970 43.59730148 29.48480034 59 255 0
15.30949974 43.75170135 29.42630005 57 255 0
15.41209984 43.96220016 29.29319954 52 255 0
15.11460018 43.33029938 29.45159912 58 255 0
15.23989964 43.52130127 29.42810059 57 255 0
15.45610046 43.64929962 29.54430008 62 255 0
15.58220005 43.83829880 29.52700043 61 255 0
15.23890018 43.24530029 29.46389961 59 255 0
15.38930035 43.41970062 29.55660057 62 255 0
15.59070015 43.55519867 29.61569977 65 255 0
15.70259953 43.75360107 29.53050041 61 255 0
15.34379959 43.17110062 29.39030075 56 255 0
15.51830006 43.33110046 29.59970093 64 255 0
15.72789955 43.45930099 29.70820045 68 255 0
15.81550026 43.67509842 29.49640083 60 255 0
15.48630047 43.07630157 29.49270058 59 255 0
15.68570042 43.21849823 29.83880043 73 255 0
15.85429955 43.37120056 29.75370026 70 255 0
15.99419975 43.54339981 29.82390022 72 255 0
15.69040012 42.94860077 29.90880013 75 255 0
15.79629993 43.14149857 29.80730057 71 255 0
15.97089958 43.28990173 29.75200081 70 255 0
16.15259933 43.42760086 30.06620026 81 255 0
15.74899960 42.89939880 29.61510086 65 255 0
15.89799976 43.06999969 29.72820091 68 255 0
16.17810059 43.14419937 30.26959991 89 255 0
16.26160049 43.35179901 30.03700066 80 255 0
15.92920017 42.78549957 29.94759941 77 255 0
16.11669922 42.92649841 30.29579926 90 255 0
16.26099968 43.08689880 30.09510040 83 255 0
16.38949966 43.26039886 30.12649918 83 255 0
16.11689949 42.66870117 30.35110092 92 255 0
16.20890045 42.86109924 30.18059921 85 255 0
16.38080025 43.00339890 30.13710022 84 255 0
16.51600075 43.16999817 30.21750069 87 255 0
16.21870041 42.59690094 30.29599953 90 255 0
16.33810043 42.77310181 30.28230095 89 255 0
16.50279999 42.91830063 30.20009995 86 255 0
16.62820053 43.09140015 30.22170067 87 255 0
16.33259964 42.51900101 30.31080055 91 255 0
16.43779945 42.70299911 30.20849991 87 255 0
16.62800026 42.83079910 30.29409981 90 255 0
16.76309967 42.99359894 30.39439964 94 255 0
16.41020012 42.45899963 30.10029984 83 255 0
16.56489944 42.61640167 30.31299973 91 255 0
16.76799965 42.73270035 30.50779915 98 255 0
16.89019966 42.90200043 30.52949905 99 255 0
16.52939987 42.37829971 30.14679909 84 255 0
16.68199921 42.53599930 30.35989952 92 255 0
16.84799957 42.67770004 30.28910065 90 255 0
16.99220085 42.83160019 30.47859955 97 255 0
16.65200043 42.29619980 30.22430038 87 255 0
16.78490067 42.46400070 30.30929947 91 255 0
16.98100090 42.58459854 30.47620010 97 255 0
17.10740089 42.75000000 30.53739929 99 255 0
16.75849915 42.22180176 30.19440079 86 255 0
16.88579941 42.39319992 30.23999977 88 255 0
17.07209969 42.52159882 30.32839966 91 255 0
17.20870018 42.68030167 30.47879982 97 255 0
16.88050079 42.14039993 30.28450012 89 255 0
17.00779915 42.31000137 30.34000015 91 255 0
17.19540024 42.43550110 30.45899963 96 255 0
17.31570053 42.60570145 30.47080040 97 255 0
16.99760056 42.06150055 30.34620094 91 255 0
17.11930084 42.23300171 30.36219978 92 255 0
17.30559921 42.35879898 30.48189926 97 255 0
17.42729950 42.52690125 30.51359940 98 255 0
17.11470032 41.98279953 30.41920090 94 255 0
17.22200012 42.16109848 30.30620003 90 255 0
17.40870094 42.28710175 30.43650055 95 255 0
17.53650093 42.45019913 30.53770065 99 255 0
17.21590042 41.91099930 30.35440063 92 255 0
17.32530022 42.08869934 30.25119972 88 255 0
17.50469971 42.22079849 30.30270004 90 255 0
17.63969994 42.37910080 30.49349976 97 255 0
17.33569908 41.83179855 30.46969986 97 255 0
17.44750023 42.00600052 30.39620018 94 255 0
17.64609909 42.12120056 30.71710014 106 255 0
17.75060081 42.30059814 30.54980087 100 255 0
17.45280075 41.75410080 30.57629967 100 255 0
17.56419945 41.92660141 30.50279999 97 255 0
17.74239922 42.05459976 30.59550095 101 255 0
17.85930061 42.22399902 30.58749962 101 255 0
17.57159996 41.67649841 30.72410011 106 255 0
17.68919945 41.84320068 30.74029922 106 255 0
17.84959984 41.98009872 30.61440086 102 255 0
17.96680069 42.14849854 30.61639977 102 255 0
17.67819977 41.60329819 30.74370003 107 255 0
17.78429985 41.77529907 30.60040092 101 255 0
17.95050049 41.91009903 30.53479958 99 255 0
18.06780052 42.07989883 30.52669907 99 255 0
17.77599907 41.53260040 30.64469910 103 255 0
17.89259911 41.70080185 30.64089966 103 255 0
18.06220055 41.83209991 30.64579964 103 255 0
18.17910004 42.00000000 30.64769936 103 255 0
17.87960052 41.45999908 30.61660004 102 255 0
17.99690056 41.62820053 30.62280083 102 255 0
18.16699982 41.75930023 30.63820076 103 255 0
18.28170013 41.92990112 30.58020020 100 255 0
17.97669983 41.38819885 30.46980095 97 255 0
18.09939957 41.55619812 30.56590080 100 255 0
18.27190018 41.68650055 30.63170052 103 255 0
18.38949966 41.85319901 30.66360092 103 255 0
18.08580017 41.31430054 30.52379990 98 255 0
18.19869995 41.48519897 30.41010094 94 255 0
18.36619949 41.62200165 30.26659966 88 255 0
18.49080086 41.78609848 30.49839973 97 255 0
18.18849945 41.24069977 30.44899940 96 255 0
18.30890083 41.41019821 30.51510048 98 255 0
18.47909927 41.54290009 30.50219917 97 255 0
18.59779930 41.71020126 30.57410049 100 255 0
18.29540062 41.16709900 30.46529961 96 255 0
18.41489983 41.33670044 30.52140045 98 255 0
18.58429909 41.47000122 30.45910072 96 255 0
18.70310020 41.63700104 30.57099915 100 255 0
18.40180016 41.09349823 30.47270012 97 255 0
18.52020073 41.26330185 30.49880028 97 255 0
18.69039917 41.39630127 30.44700050 96 255 0
18.80839920 41.56230164 30.64889908 103 255 0
18.50279999 41.01559830 30.22130013 87 255 0
18.62319946 41.18849945 30.26740074 89 255 0
18.79649925 41.32310104 30.29610062 90 255 0
18.91469955 41.49269867 30.43810081 95 255 0
18.61179924 40.94269943 30.31089973 91 255 0
18.73080063 41.11399841 30.28709984 90 255 0
18.90360069 41.24860001 30.32640076 91 255 0
19.02079964 41.41880035 30.44829941 96 255 0
18.71879959 40.86719894 30.27179909 89 255 0
18.83819962 41.03950119 30.28790092 90 255 0
19.01280022 41.17319870 30.16769981 85 255 0
19.13050079 41.34579849 30.28969955 90 255 0
18.82620049 40.79510117 30.35370064 92 255 0
18.94630051 40.96329880 30.20980072 87 255 0
19.12190056 41.09759903 30.13030052 84 255 0
19.23579979 41.27130127 30.36219978 92 255 0
18.93460083 40.71429825 30.17690086 85 255 0
19.05769920 40.88299942 30.00300026 79 255 0
19.22929955 41.02299881 30.17399979 85 255 0
19.34510040 41.19680023 30.29590034 90 255 0
19.04120064 40.64339828 30.28100014 89 255 0
19.16379929 40.81140137 30.14719963 84 255 0
19.33180046 40.95130157 30.33869934 91 255 0
19.45369911 41.12200165 30.27070045 89 255 0
19.15320015 40.55939865 30.08659935 82 255 0
19.27799988 40.72940063 29.96279907 77 255 0
19.44890022 40.87070084 30.10490036 83 255 0
19.56620026 41.04600143 30.17679977 85 255 0
19.25839996 40.49010086 30.21299934 87 255 0
19.38999939 40.65090179 29.90959930 75 255 0
19.55369949 40.79779816 30.19190025 86 255 0
19.67379951 40.97109985 30.19389915 86 255 0
19.37220001 40.40620041 30.06110001 81 255 0
19.50049973 40.57400131 29.90749931 75 255 0
19.67530060 40.71409988 29.96069908 77 255 0
19.79660034 40.89039993 29.97270012 78 255 0
19.48299980 40.32809830 30.03009987 80 255 0
19.61269951 40.49560165 29.87660027 74 255 0
19.80279922 40.62649918 29.69109917 67 255 0
19.92200089 40.80780029 29.76289940 70 255 0
19.59429932 40.24959946 30.00040054 79 255 0
19.72769928 40.41469955 29.80710030 71 255 0
19.92510033 40.54209900 29.55260086 62 255 0
20.04490089 40.72549820 29.62439919 65 255 0
19.70140076 40.17660141 30.05150032 81 255 0
19.83049965 40.34500122 29.93799973 77 255 0
20.04780006 40.45729828 29.43540001 58 255 0
20.16819954 40.64260101 29.50709915 60 255 0
19.81369972 40.09709930 30.01420021 80 255 0
19.95369911 40.25709915 29.77140045 71 255 0
20.16379929 40.37689972 29.41909981 57 255 0
20.28109932 40.56420135 29.52059937 61 255 0
19.94269943 39.99919891 29.75950050 70 255 0
20.09860039 40.15060043 29.36770058 55 255 0
20.27459908 40.29990005 29.46369934 59 255 0
20.39699936 40.48450089 29.50550079 60 255 0
20.06419945 39.91090012 29.64539909 65 255 0
20.20109940 40.08129883 29.51219940 60 255 0
20.39089966 40.21939850 29.44980049 58 255 0
20.55389977 40.38370132 29.11440086 45 255 0
20.20400047 39.80400085 29.34429932 54 255 0
20.33589935 39.98460007 29.30050087 53 255 0
20.51810074 40.13159943 29.33810043 54 255 0
20.65940094 40.30879974 29.22120094 50 255 0
20.34160042 39.70069885 29.11450005 45 255 0
20.44519997 39.90950012 29.36800003 55 255 0
20.65270042 40.03870010 29.17830086 48 255 0
20.74150085 40.24649811 29.50729942 60 255 0
20.47660065 39.60120010 28.94589996 39 255 0
20.56679916 39.82419968 29.31789970 53 255 0
20.78370094 39.94829941 29.06970024 44 255 0
20.94319916 40.12030029 28.84420013 35 255 0
20.59690094 39.51689911 28.93720055 38 255 0
20.73340034 39.70230103 28.89340019 37 255 0
20.92399979 39.85150146 28.90329933 38 255 0
21.13960075 39.99570084 28.29290009 14 255 0
20.71850014 39.43130112 28.91990089 38 255 0
20.88660049 39.59199905 28.62929916 27 255 0
21.08169937 39.74300003 28.63010025 27 255 0
21.26840019 39.90739822 28.26729965 14 255 0
20.85890007 39.32809830 28.75609970 32 255 0
21.02540016 39.49369812 28.50530052 23 255 0
21.26339912 39.61830139 28.22120094 11 255 0
21.42620087 39.80279922 28.05590057 5 255 0
21.06270027 39.16619873 28.13150024 8 255 0
21.17989922 39.38299942 28.28459930 14 255 0
21.43770027 39.49850082 27.90329933 0 255 0
21.56679916 39.70750046 27.97439957 2 255 0
21.27840042 38.99549866 27.49060059 0 240 14
21.35939980 39.25289917 27.91850090 0 255 0
21.61359978 39.37749863 27.60759926 0 244 10
21.73489952 39.59629822 27.73749924 0 249 5
21.41160011 38.90200043 27.48110008 0 239 15
21.57010078 39.09880066 27.38820076 0 235 19
21.73850060 39.29090118 27.64760017 0 246 8
21.88960075 39.49240112 27.60079956 0 243 11
21.54660034 38.80690002 27.46330070 0 238 16
21.68079948 39.02370071 27.52720070 0 240 14
21.91920090 39.16659927 27.36590004 0 234 20
22.04470062 39.38809967 27.47590065 0 239 15
21.74040031 38.65950012 27.08530045 0 224 30
21.83440018 38.91490173 27.40320015 0 236 18
22.04570007 39.07889938 27.40920067 0 237 17
22.19249916 39.28789902 27.40169907 0 236 18
21.88380051 38.55759811 27.04199982 0 222 32
21.99519920 38.80080032 27.25189972 0 231 23
22.22159958 38.95780182 27.19050026 0 228 26
22.37430000 39.16749954 27.16360092 0 227 27
22.02300072 38.45959854 27.02949905 0 222 32
22.16029930 38.68360138 27.09300041 0 225 29
22.38739967 38.84339905 27.04229927 0 222 32
22.52190018 39.06700134 27.11269951 0 225 29
22.25559998 38.28070068 26.51339912 0 202 52
22.35020065 38.54750061 26.81959915 0 214 40
22.57349968 38.71530151 26.80890083 0 213 41
22.70350075 38.94609833 26.90830040 0 217 37
22.41040039 38.17010117 26.44709969 0 200 54
22.54820061 38.40549850 26.52949905 0 203 51
22.76309967 38.58470154 26.57799911 0 205 49
22.86700058 38.83580017 26.80319977 0 213 41
22.53949928 38.08160019 26.51810074 0 203 51
22.69050026 38.30630112 26.53260040 0 203 51
22.94160080 38.46170044 26.41749954 0 199 55
23.10919952 38.67789841 26.36190033 0 197 57
22.68180084 37.98180008 26.52280045 0 203 51
22.83099937 38.20859909 26.54689980 0 204 50
23.10289955 38.35029984 26.34609985 0 196 58
23.33309937 38.53049850 26.03030014 0 184 70
22.96470070 37.76330185 25.87439919 0 178 76
22.97369957 38.10919952 26.55319977 0 204 50
23.29490089 38.21799850 26.15159988 0 189 65
23.52470016 38.40240097 25.85589981 0 177 77
23.13780022 37.63850021 25.76880074 0 174 80
23.28709984 37.88069916 25.82130051 0 177 77
23.51799965 38.06449890 25.84469986 0 177 77
23.70229912 38.28260040 25.75119972 0 174 80
23.31279945 37.51229858 25.66530037 0 171 83
23.71459961 37.92900085 25.66539955 0 171 83
23.82229996 38.19789886 25.87849998 0 178 76
23.87969971 37.81499863 25.62249947 0 169 85
23.98410034 38.08769989 25.84460068 0 177 77
24.15200043 37.97359848 25.79360008 0 175 79
24.33440018 37.85049820 25.69720078 0 171 83
24.50760078 37.73300171 25.64100075 0 169 85
24.65950012 37.62870026 25.66250038 0 171 83
9.56814957 47.02059937 25.84840012 0 177 77
10.04209995 47.44729996 25.90559959 0 180 74
10.22789955 47.69400024 25.92399979 0 180 74
9.74001026 46.90290070 25.82469940 0 177 77
9.93908978 47.14250183 25.87070084 0 178 76
10.20810032 47.33100128 25.87450027 0 178 76
10.41619968 47.56010056 25.94580078 0 181 73
9.91154957 46.78549957 25.80310059 0 176 78
10.12549973 47.01409912 25.88459969 0 179 75
10.39700031 47.19889832 25.89839935 0 179 75
10.59969997 47.42959976 25.96120071 0 182 72
10.08269978 46.66830063 25.78359985 0 175 79
10.29549980 46.89649963 25.86549950 0 178 76
10.59619999 47.05970001 25.95159912 0 181 73
10.77869987 47.30260086 25.97030067 0 182 72
10.28880024 46.53010178 25.84630013 0 177 77
10.47659969 46.77159882 25.87520027 0 178 76
10.74569988 46.95489883 25.89159966 0 179 75
10.94960022 47.18140030 25.96389961 0 182 72
10.45479965 46.41630173 25.82250023 0 177 77
10.66440010 46.64250183 25.90519905 0 180 74
10.92829990 46.82720184 25.91390038 0 180 74
11.11279964 47.06589890 25.94179916 0 181 73
10.63949966 46.29119873 25.84560013 0 177 77
10.82900047 46.52849960 25.88389969 0 179 75
11.08119965 46.72000122 25.86669922 0 178 76
11.27919960 46.94810104 25.93059921 0 180 74
10.80459976 46.17800140 25.82600021 0 177 77
10.98239994 46.42169952 25.83749962 0 177 77
11.26249981 46.59329987 25.89340019 0 179 75
11.44530010 46.83060074 25.92160034 0 180 74
10.98779964 46.05410004 25.85370064 0 177 77
11.18589973 46.28269958 25.91950035 0 180 74
11.42889977 46.47689819 25.88629913 0 179 75
11.62100029 46.70589828 25.94179916 0 181 73
11.16269970 45.93519974 25.86560059 0 178 76
11.35610008 46.16519928 25.92259979 0 180 74
11.62209988 46.34199905 25.95409966 0 181 73
11.81250000 46.56940079 26.00979996 0 183 71
11.59469986 45.66379929 26.54529953 0 204 50
11.57400036 46.01729965 26.05559921 0 185 69
11.89729977 46.15060043 26.25309944 0 192 62
12.02849960 46.41479874 26.15360069 0 189 65
11.77029991 45.54520035 26.58250046 0 205 49
11.77579975 45.87969971 26.15500069 0 189 65
12.15779972 45.96939850 26.52879906 0 203 51
12.31859970 46.20500183 26.52070045 0 203 51
12.03670025 45.37319946 26.87000084 0 216 38
12.23149967 45.58020020 26.96489906 0 219 35
12.37220001 45.82009888 26.68889999 0 209 45
12.59360027 46.00630188 26.86490059 0 216 38
12.23509979 45.24169922 26.98640060 0 220 34
12.36579990 45.48630142 26.90649986 0 217 37
12.68109989 45.60570145 27.13859940 0 226 28
12.88449955 45.79550171 27.27829933 0 231 23
12.48690033 45.07920074 27.26280022 0 231 23
12.55459976 45.35770035 27.00679970 0 221 33
12.93089962 45.43209839 27.43580055 0 237 17
13.08220005 45.65390015 27.42749977 0 237 17
12.65750027 44.96469879 27.32019997 0 233 21
12.86649990 45.15119934 27.48150063 0 239 15
13.07359982 45.33229828 27.42040062 0 237 17
13.23330021 45.54700089 27.44000053 0 237 17
12.81739998 44.85639954 27.35180092 0 234 20
12.98770046 45.06589890 27.40180016 0 236 18
13.36610031 45.12939835 27.88299942 0 254 0
13.52410030 45.33560181 27.91200066 0 255 0
13.20650005 44.61589813 28.08670044 7 255 0
13.35480022 44.82529831 28.09040070 7 255 0
13.56250000 44.99280167 28.05990028 5 255 0
13.73779964 45.18170166 28.15460014 9 255 0
13.35050011 44.51770020 28.09639931 7 255 0
13.47780037 44.73920059 28.03440094 5 255 0
13.63510036 44.94129944 27.83539963 0 252 2
13.79479980 45.14500046 27.87400055 0 254 0
13.51459980 44.40810013 28.17379951 10 255 0
13.61540031 44.64390182 28.02689934 5 255 0
13.90799999 44.75220108 28.29010010 14 255 0
13.99120045 45.00389862 28.07419968 6 255 0
13.71150017 44.27999878 28.36650085 17 255 0
13.78909969 44.52600098 28.14369965 9 255 0
14.09109974 44.62490082 28.45610046 20 255 0
14.23099995 44.82989883 28.44759941 20 255 0
13.92770004 44.14149857 28.63780022 27 255 0
14.06400013 44.34510040 28.62280083 27 255 0
14.25310040 44.51200104 28.55820084 24 255 0
14.33880043 44.75519943 28.35050011 17 255 0
14.09869957 44.02899933 28.76969910 32 255 0
14.23890018 44.22700119 28.77379990 32 255 0
14.43369961 44.38650131 28.73859978 31 255 0
14.49919987 44.64080048 28.45420074 20 255 0
14.28349972 43.90909958 28.96120071 40 255 0
14.40089989 44.11709976 28.88909912 37 255 0
14.60140038 44.26979828 28.88330078 37 255 0
14.64589977 44.53670120 28.51230049 23 255 0
14.41059971 43.82170105 28.95459938 39 255 0
14.54839993 44.01639938 28.95879936 40 255 0
14.70909977 44.19440079 28.80080032 34 255 0
14.90050030 44.35060120 29.02179909 42 255 0
14.51480007 43.74689865 28.86330032 36 255 0
14.64560032 43.94689941 28.83880043 35 255 0
14.86439991 44.08639908 28.91119957 38 255 0
15.02350044 44.26419830 29.00810051 41 255 0
14.68389988 43.63660049 29.02260017 42 255 0
14.84889984 43.81200027 29.14209938 47 255 0
15.04489994 43.96110153 29.13890076 47 255 0
15.16619968 44.16279984 29.08219910 44 255 0
14.83850002 43.53450012 29.13610077 47 255 0
15.02439976 43.69459915 29.35219955 54 255 0
15.21310043 43.84429932 29.33069992 53 255 0
15.30109978 44.06729889 29.12929916 46 255 0
15.01669979 43.41999817 29.35759926 55 255 0
15.18099976 43.58900070 29.49710083 60 255 0
15.35270023 43.74710083 29.40889931 56 255 0
15.44729996 43.96300125 29.23600006 50 255 0
15.15769958 43.32600021 29.43659973 58 255 0
15.27659988 43.52059937 29.38299942 56 255 0
15.48890018 43.65230179 29.47909927 59 255 0
15.61750031 43.84030151 29.47039986 59 255 0
15.29069996 43.23640060 29.48819923 59 255 0
15.43239975 43.41579819 29.54120064 62 255 0
15.63379955 43.55160141 29.59959984 64 255 0
15.74590015 43.74950027 29.51320076 61 255 0
15.38679981 43.16630173 29.37630081 56 255 0
15.56130028 43.32740021 29.58480072 63 255 0
15.77099991 43.45619965 29.69269943 68 255 0
15.85130024 43.67639923 29.44079971 58 255 0
15.51900005 43.07730103 29.43070030 57 255 0
15.71290016 43.22560120 29.74679947 69 255 0
15.89729977 43.36830139 29.73880005 69 255 0
16.03009987 43.54639816 29.76899910 70 255 0
15.73309994 42.94670105 29.89629936 75 255 0
15.84490013 43.13560104 29.82299995 72 255 0
16.01379967 43.28699875 29.73760033 69 255 0
16.19540024 43.42649841 30.05100060 81 255 0
15.77470016 42.90439987 29.51490021 61 255 0
15.95730019 43.05730057 29.80299950 71 255 0
16.22249985 43.14310074 30.26600075 88 255 0
16.30439949 43.35039902 30.02230072 80 255 0
15.97920036 42.78010178 29.97529984 78 255 0
16.15929985 42.92679977 30.28359985 89 255 0
16.30369949 43.08589935 30.08200073 82 255 0
16.43379974 43.25830078 30.12220001 83 255 0
16.15929985 42.66930008 30.34049988 91 255 0
16.25819969 42.85670090 30.20809937 87 255 0
16.42340088 43.00260162 30.12450027 83 255 0
16.55719948 43.17079926 30.19420052 86 255 0
16.25270081 42.60120010 30.23670006 88 255 0
16.36930084 42.77959824 30.20229912 86 255 0
16.54990005 42.91469955 30.21759987 87 255 0
16.67650032 43.08639908 30.24810028 88 255 0
16.37010002 42.52149963 30.27160072 89 255 0
16.46949959 42.70880127 30.12890053 84 255 0
16.66480064 42.83470154 30.24329948 88 255 0
16.81229973 42.98870087 30.43140030 95 255 0
16.45890045 42.45510101 30.13039970 84 255 0
16.61910057 42.61000061 30.38170052 93 255 0
16.80500031 42.73759842 30.45759964 96 255 0
16.92880058 42.90639877 30.48819923 97 255 0
16.56579971 42.38019943 30.09860039 83 255 0
16.72439957 42.53639984 30.35029984 92 255 0
16.89039993 42.67760086 30.27869987 89 255 0
17.02980042 42.83649826 30.42779922 95 255 0
16.69989967 42.29339981 30.25559998 88 255 0
16.83790016 42.45819855 30.37919998 93 255 0
17.02330017 42.58549881 30.46640015 97 255 0
17.15430069 42.74750137 30.56629944 100 255 0
16.80080032 42.22119904 30.18670082 85 255 0
16.92690086 42.39339828 30.22139931 87 255 0
17.12360001 42.51549911 30.39830017 94 255 0
17.24679947 42.68470001 30.42900085 95 255 0
16.93799973 42.13410187 30.39620018 94 255 0
17.05960083 42.30509949 30.41119957 94 255 0
17.23760033 42.43629837 30.45019913 96 255 0
17.35400009 42.60979843 30.42140007 94 255 0
17.03860092 42.06209946 30.32959938 91 255 0
17.16160011 42.23320007 30.35449982 92 255 0
17.34379959 42.36230087 30.43390083 95 255 0
17.46590042 42.53099823 30.46470070 96 255 0
17.15679932 41.98339844 30.41300011 94 255 0
17.26110077 42.16249847 30.26919937 89 255 0
17.44820023 42.28950119 30.39889908 94 255 0
17.57279968 42.45650101 30.45940018 96 255 0
17.25799942 41.91109848 30.34869957 92 255 0
17.36750031 42.08819962 30.24449921 88 255 0
17.55380058 42.21590042 30.37479973 93 255 0
17.67880058 42.38259888 30.44540024 95 255 0
17.37369919 41.83380127 30.42469978 94 255 0
17.47879982 42.01150131 30.27070045 89 255 0
17.68499947 42.12549973 30.67049980 104 255 0
17.78989983 42.30419922 30.50230026 97 255 0
17.50200081 41.75329971 30.65130043 103 255 0
17.61619949 41.92290115 30.61669922 102 255 0
17.78160095 42.05789948 30.54940033 100 255 0
17.89889908 42.22760010 30.54039955 99 255 0
17.60670090 41.68040085 30.64030075 103 255 0
17.72500038 41.84820175 30.65550041 103 255 0
17.88960075 41.98279953 30.57869911 100 255 0
18.00830078 42.15039825 30.59959984 101 255 0
17.72540092 41.60440063 30.80979919 109 255 0
17.82559967 41.77700043 30.58580017 101 255 0
17.99259949 41.91099930 30.52939987 99 255 0
18.10989952 42.08069992 30.52039909 98 255 0
17.82270050 41.53340149 30.71139908 106 255 0
17.93939972 41.70050049 30.71660042 106 255 0
18.10420036 41.83369827 30.64089966 103 255 0
18.22109985 42.00149918 30.64189911 103 255 0
17.91379929 41.46229935 30.49419975 97 255 0
18.03599930 41.63059998 30.56920052 100 255 0
18.20549965 41.76300049 30.55389977 100 255 0
18.32259941 41.93220139 30.54490089 99 255 0
18.02470016 41.38850021 30.57740021 100 255 0
18.14319992 41.55680084 30.60260010 101 255 0
18.31380081 41.68780136 30.62779999 103 255 0
18.43149948 41.85469818 30.65880013 103 255 0
18.12319946 41.31480026 30.43210030 95 255 0
18.23730087 41.48600006 30.32740021 91 255 0
18.40819931 41.62120056 30.26320076 88 255 0
18.53190041 41.78770065 30.45409966 96 255 0
18.23360062 41.24169922 30.52770042 99 255 0
18.35210037 41.41070175 30.55290031 100 255 0
18.52179909 41.54290009 30.53919983 99 255 0
18.63909912 41.71200180 30.53019905 99 255 0
18.33819962 41.16790009 30.49449921 97 255 0
18.45560074 41.33729935 30.47970009 97 255 0
18.62619972 41.47019958 30.45660019 96 255 0
18.74469948 41.63859940 30.52759933 99 255 0
18.44249916 41.09320068 30.43239975 95 255 0
18.56240082 41.26390076 30.51759911 98 255 0
18.73250008 41.39630127 30.48509979 97 255 0
18.85020065 41.56309891 30.67600060 104 255 0
18.54439926 41.01419830 30.21150017 87 255 0
18.66460037 41.18709946 30.22660065 87 255 0
18.83839989 41.32239914 30.33460045 91 255 0
18.95680046 41.49290085 30.40559959 94 255 0
18.65460014 40.94430161 30.39159966 94 255 0
18.77289963 41.11399841 30.33679962 91 255 0
18.94540024 41.24789810 30.32539940 91 255 0
19.06389999 41.41910172 30.36630058 92 255 0
18.76059914 40.86690140 30.29290009 90 255 0
18.88010025 41.03749847 30.23810005 88 255 0
19.05529976 41.17110062 30.12730026 83 255 0
19.17320061 41.34479904 30.24819946 88 255 0
18.86800003 40.79119873 30.26539993 88 255 0
18.98850060 40.96089935 30.17060089 85 255 0
19.16460037 41.09500122 30.09029961 83 255 0
19.27969933 41.27030182 30.29120064 90 255 0
18.97599983 40.71440125 30.21899986 87 255 0
19.09900093 40.88130188 30.03420067 80 255 0
19.27079964 41.02149963 30.18440056 85 255 0
19.38839912 41.19530106 30.25539970 88 255 0
19.08480072 40.63660049 30.16379929 85 255 0
19.20680046 40.80770111 30.09900093 83 255 0
19.37639999 40.94839859 30.25970078 88 255 0
19.49900055 41.11949921 30.19079971 86 255 0
19.19669914 40.55300140 30.01000023 80 255 0
19.31979942 40.72639847 29.96509933 77 255 0
19.48690033 40.87139893 30.19619942 86 255 0
19.60750008 41.04430008 30.18720055 85 255 0
19.29910088 40.49039841 30.24659920 88 255 0
19.43059921 40.64889908 29.94230080 77 255 0
19.59939957 40.79309845 30.11400032 83 255 0
19.71789932 40.96829987 30.15489960 85 255 0
19.41419983 40.40309906 30.05529976 81 255 0
19.54229927 40.57059860 29.91069984 76 255 0
19.72330093 40.70629883 29.85350037 74 255 0
19.84370041 40.88479996 29.89439964 75 255 0
19.52639961 40.32270050 29.99500084 79 255 0
19.65649986 40.48970032 29.84049988 73 255 0
19.84720039 40.61980057 29.65430069 66 255 0
19.96610069 40.80229950 29.73509979 69 255 0
19.63430023 40.24890137 30.03549957 80 255 0
19.76709938 40.41299820 29.85120010 74 255 0
19.96980095 40.53430176 29.51639938 61 255 0
20.09399986 40.71649933 29.53730011 62 255 0
19.74530029 40.17079926 30.01740074 80 255 0
19.87290001 40.34099960 29.93280029 77 255 0
20.08970070 40.45090103 29.43959999 58 255 0
20.21019936 40.63650131 29.51029968 60 255 0
19.85460091 40.09500122 30.03039932 80 255 0
20.00349998 40.24489975 29.66740036 66 255 0
20.20569992 40.37030029 29.42379951 57 255 0
20.32209969 40.55870056 29.53420067 62 255 0
19.99379921 39.98339844 29.63719940 65 255 0
20.14039993 40.14379883 29.37369919 55 255 0
20.31929970 40.29159927 29.43910027 58 255 0
20.44689941 40.47389984 29.43020058 57 255 0
20.10899925 39.90200043 29.61319923 65 255 0
20.25699997 40.06230164 29.35989952 55 255 0
20.43269920 40.21289825 29.45560074 59 255 0
20.60029984 40.37279892 29.07959938 44 255 0
20.25880051 39.78239822 29.20380020 49 255 0
20.37479973 39.97980118 29.33740044 54 255 0
20.56739998 40.11899948 29.27510071 52 255 0
20.70590019 40.29830170 29.18689919 48 255 0
20.39100075 39.68410110 29.04420090 43 255 0
20.48080063 39.90800095 29.43510056 58 255 0
20.70479965 40.02320099 29.09620094 45 255 0
20.78210068 40.24089813 29.52289963 61 255 0
20.51440048 39.59600067 28.99500084 41 255 0
20.60090065 39.82360077 29.39529991 56 255 0
20.83519936 39.93249893 28.99810028 41 255 0
21.01370049 40.09349823 28.63330078 27 255 0
20.63859940 39.50730133 28.94720078 39 255 0
20.77059937 39.69639969 28.94190025 39 255 0
20.97229958 39.83700180 28.86210060 36 255 0
21.18190002 39.98210144 28.30030060 14 255 0
20.76950073 39.41220093 28.85160065 35 255 0
20.92600060 39.58259964 28.65880013 28 255 0
21.12369919 39.73139954 28.63909912 27 255 0
21.31489944 39.89099884 28.24570084 13 255 0
20.90189934 39.31610107 28.75749969 32 255 0
21.06080055 39.48690033 28.56489944 25 255 0
21.33259964 39.58499908 28.04380035 5 255 0
21.49099922 39.77410126 27.91699982 0 255 0
21.11510086 39.14160156 28.06520081 6 255 0
21.25079918 39.34510040 28.08909988 7 255 0
21.48590088 39.47819901 27.87459946 0 254 0
21.61380005 39.68899918 27.95429993 2 255 0
21.31649971 38.98109818 27.53350067 0 241 13
21.39430046 39.24300003 27.97949982 2 255 0
21.65439987 39.36080170 27.62870026 0 245 9
21.78549957 39.57410049 27.69860077 0 247 7
21.47389984 38.86439896 27.35799980 0 234 20
21.62000084 39.07339859 27.35210037 0 234 20
21.78899956 39.26739883 27.61050034 0 244 10
21.94569969 39.46609879 27.53330040 0 241 13
21.58720016 38.78969955 27.48780060 0 239 15
21.72299957 39.00529861 27.54070091 0 241 13
21.96669960 39.14350128 27.34930038 0 234 20
22.09420013 39.36500168 27.44829941 0 237 17
21.77949905 38.64149857 27.12050056 0 225 29
21.87000084 38.90119934 27.45649910 0 238 16
22.10400009 39.04840088 27.33460045 0 234 20
22.26269913 39.25139999 27.26749992 0 231 23
21.94420052 38.51969910 26.95109940 0 219 35
22.05310059 38.76810074 27.17910004 0 228 26
22.26390076 38.93719864 27.20459938 0 228 26
22.42830086 39.13949966 27.11809921 0 225 29
22.10140038 38.40539932 26.84230042 0 215 39
22.22410011 38.64519882 26.99189949 0 220 34
22.44510078 38.81110001 26.97940063 0 220 34
22.58029938 39.03590012 27.04859924 0 222 32
22.31040001 38.24489975 26.46369934 0 201 53
22.41309929 38.50820160 26.72940063 0 210 44
22.63170052 38.68109894 26.74699974 0 211 43
22.75419998 38.91849899 26.88389969 0 216 38
22.46010017 38.13840103 26.42720032 0 199 55
22.61000061 38.36550140 26.45009995 0 200 54
22.81380081 38.55450058 26.55590057 0 204 50
22.91799927 38.80739975 26.77960014 0 213 41
22.58939934 38.05009842 26.49889946 0 202 52
22.74699974 38.27059937 26.48310089 0 201 53
22.99889946 38.42580032 26.36730003 0 197 57
23.20030022 38.62160110 26.16570091 0 189 65
22.76000023 37.92549896 26.36940002 0 197 57
22.89830017 38.16439819 26.45000076 0 200 54
23.16950035 38.30739975 26.25819969 0 193 61
23.37579918 38.50270081 26.04750061 0 185 69
23.02370071 37.72029877 25.81909943 0 176 78
23.04820061 38.05929947 26.42840004 0 199 55
23.36450005 38.17169952 26.05529976 0 185 69
23.57679939 38.36750031 25.83550072 0 177 77
23.18670082 37.60359955 25.76239967 0 174 80
23.32959938 37.85160065 25.84230042 0 177 77
23.57920074 38.02230072 25.78800011 0 175 79
23.75460052 38.24679947 25.73170090 0 173 81
23.38170052 37.45959854 25.57369995 0 167 87
23.76679993 37.89210129 25.64809990 0 170 84
23.87479973 38.16260147 25.85960007 0 177 77
23.93959999 37.77230072 25.57749939 0 167 87
24.02669907 38.05839920 25.86470032 0 178 76
24.20499992 37.93730164 25.77639961 0 174 80
24.39839935 37.80649948 25.64299965 0 170 84
24.56110001 37.69530106 25.62560081 0 169 85
24.71319962 37.59090042 25.64789963 0 170 84
9.65003014 46.93450165 25.86350060 0 178 76
9.84928036 47.17430115 25.90760040 0 180 74
10.11820030 47.36299896 25.90929985 0 180 74
10.32660007 47.59230042 25.97879982 0 182 72
9.82147980 46.81710052 25.84110069 0 177 77
10.00370026 47.06650162 25.85029984 0 177 77
10.30729961 47.23099899 25.93250084 0 180 74
10.49499989 47.47299957 25.95820045 0 181 73
10.00870037 46.69039917 25.85619926 0 177 77
10.20569992 46.92850113 25.90089989 0 180 74
10.48770046 47.10499954 25.94039917 0 181 73
10.67430019 47.34590149 25.96629906 0 182 72
10.19509983 46.56439972 25.87369919 0 178 76
10.40639973 46.79140091 25.95420074 0 181 73
10.65610027 46.98709869 25.92399979 0 180 74
10.86030006 47.21390152 25.99449921 0 183 71
10.36499977 46.44820023 25.85810089 0 177 77
10.57499981 46.67480087 25.93899918 0 180 74
10.82400036 46.86959839 25.90979958 0 180 74
11.02340031 47.09849930 25.97170067 0 182 72
10.51920033 46.34130096 25.80870056 0 176 78
10.69429970 46.58919907 25.80940056 0 176 78
10.99160004 46.75239944 25.89760017 0 179 75
11.18990040 46.98070145 25.95980072 0 181 73
10.71500015 46.21009827 25.86000061 0 177 77
10.90750027 46.44459915 25.90579987 0 180 74
11.17300034 46.62580109 25.92359924 0 180 74
11.35589981 46.86320114 25.95000076 0 181 73
10.85739994 46.11019897 25.78759956 0 175 79
11.05679989 46.34030151 25.85160065 0 177 77
11.33950043 46.50939941 25.91580009 0 180 74
11.52140045 46.74610138 25.94230080 0 181 73
11.08800030 45.95909882 25.93429947 0 180 74
11.26700020 46.19779968 25.95330048 0 181 73
11.54360008 46.36780167 26.01000023 0 183 71
11.72710037 46.59999847 26.04570007 0 185 69
11.45590019 45.72909927 26.43919945 0 200 54
11.48579979 46.05030060 26.08530045 0 186 68
11.86120033 46.15010071 26.41729927 0 199 55
11.94079971 46.44820023 26.17939949 0 190 64
11.64680004 45.60189819 26.51160049 0 202 52
11.67800045 45.91939926 26.15629959 0 189 65
12.05920029 46.01279831 26.51840019 0 203 51
12.24619961 46.23009872 26.58189964 0 205 49
11.98840046 45.38859940 26.99010086 0 220 34
12.14570045 45.61790085 26.98240089 0 220 34
12.32709980 45.82880020 26.82449913 0 214 40
12.56770039 46.00040054 27.05380058 0 223 31
12.15299988 45.27730179 27.01390076 0 222 32
12.28639984 45.51979828 26.94179916 0 219 35
12.59980011 45.64189911 27.16250038 0 227 27
12.82579994 45.81629944 27.36499977 0 234 20
12.38000011 45.13069916 27.21529961 0 229 25
12.47579956 45.39149857 27.04129982 0 222 32
12.83889961 45.47750092 27.42149925 0 237 17
13.00259972 45.69100189 27.44879913 0 238 16
12.56449986 45.00870132 27.30870056 0 232 22
12.81610012 45.17079926 27.58880043 0 243 11
12.99409962 45.36940002 27.44249916 0 237 17
13.18369961 45.56250000 27.55349922 0 242 12
12.74090004 44.89139938 27.38599968 0 235 19
12.90820026 45.10290146 27.42510033 0 237 17
13.28960037 45.16780090 27.90369987 0 255 0
13.45930004 45.36560059 27.96859932 2 255 0
13.09700012 44.67390060 28.00709915 4 255 0
13.29790020 44.85300064 28.16799927 10 255 0
13.44900036 45.05709839 27.95809937 2 255 0
13.65149975 45.22909927 28.13549995 8 255 0
13.27560043 44.55659866 28.11879921 8 255 0
13.41720009 44.76890182 28.10230064 7 255 0
13.54979992 44.98540115 27.82679939 0 252 2
13.71819973 45.18349838 27.89209938 0 255 0
13.42819977 44.45389938 28.15780067 9 255 0
13.56330013 44.66849899 28.12249947 8 255 0
13.83409977 44.79180145 28.30850029 15 255 0
13.92669964 45.03509903 28.12910080 8 255 0
13.64710045 44.31489944 28.41550064 19 255 0
13.74849987 44.54449844 28.27650070 14 255 0
14.05099964 44.64319992 28.58699989 26 255 0
14.17660046 44.85660172 28.52989960 23 255 0
13.86769962 44.17570114 28.69529915 29 255 0
14.00619984 44.37720108 28.68849945 29 255 0
14.19970036 44.54010010 28.64130020 28 255 0
14.28590012 44.78010178 28.44199944 20 255 0
14.02810001 44.06980133 28.78870010 33 255 0
14.15740013 44.27450180 28.75349998 32 255 0
14.35229969 44.43429947 28.71660042 30 255 0
14.42640018 44.68099976 28.46910095 21 255 0
14.19229984 43.96220016 28.90320015 38 255 0
14.29930019 44.17739868 28.79179955 33 255 0
14.51879978 44.31959915 28.85099983 35 255 0
14.59790039 44.55929947 28.62190056 27 255 0
14.31999969 43.87450027 28.89590073 37 255 0
14.46870041 44.06409836 28.93680000 38 255 0
14.63860035 44.23559952 28.81559944 34 255 0
14.80980015 44.40810013 28.94899940 39 255 0
14.42160034 43.80049896 28.79439926 33 255 0
14.56540012 43.99409866 28.81629944 34 255 0
14.83290005 44.10269928 29.07850075 44 255 0
14.96590042 44.29759979 29.06859970 44 255 0
14.59990025 43.68619919 28.98139954 41 255 0
14.78069973 43.85409927 29.15699959 47 255 0
14.99520016 43.99110031 29.22909927 50 255 0
15.09739971 44.20489883 29.09429932 44 255 0
14.74100018 43.59180069 29.03639984 42 255 0
14.94569969 43.74420166 29.31819916 53 255 0
15.14599991 43.88700104 29.34329987 54 255 0
15.22399998 44.11600113 29.10219955 45 255 0
14.98089981 43.44680023 29.49769974 60 255 0
