10.90069962 4.94121981 27.48990059 255 233 0
11.14630032 5.11450005 27.49760056 255 231 0
11.31149960 5.34491014 27.49909973 255 231 0
11.01809978 4.51103020 27.24760056 204 255 0
11.12170029 4.78751993 27.38030052 243 255 0
11.38710022 4.95209980 27.35510063 237 255 0
11.53680038 5.19594002 27.39119911 247 255 0
11.20660019 4.37611008 27.21069908 194 255 0
11.33619976 4.63790989 27.29129982 217 255 0
11.59969997 4.80700016 27.27630043 213 255 0
11.73299980 5.06380987 27.34639931 234 255 0
11.40470028 4.23432016 27.15929985 178 255 0
11.52649975 4.50418997 27.25670052 207 255 0
11.81410027 4.66059017 27.20050049 191 255 0
11.96669960 4.90931988 27.23649979 201 255 0
11.59560013 4.09757996 27.12789917 169 255 0
11.73999977 4.35497999 27.18230057 185 255 0
12.04829979 4.50155020 27.09420013 160 255 0
12.20250034 4.75319004 27.13010025 170 255 0
11.77439976 3.96923995 27.12450027 169 255 0
11.88370037 4.25201988 27.24629974 204 255 0
12.21140003 4.38695002 27.12599945 169 255 0
12.40799999 4.61477995 27.08609962 157 255 0
12.11390018 3.72777009 26.82139969 79 255 0
12.17199993 4.05274010 27.04330063 145 255 0
12.52299976 4.17866993 26.89229965 100 255 0
12.68070030 4.43611002 26.92810059 110 255 0
12.38630009 3.53337002 26.65780067 31 255 0
12.51879978 3.81417990 26.74500084 56 255 0
12.81989956 3.97931004 26.69700050 42 255 0
12.96100044 4.25241995 26.76609993 62 255 0
12.69810009 3.31103992 26.43230057 0 219 35
12.75899982 3.64638996 26.65189934 29 255 0
13.02509975 3.83750010 26.67200089 35 255 0
13.20580006 4.08964014 26.67460060 35 255 0
12.93529987 3.14117002 26.35230064 0 195 59
13.09529972 3.41424990 26.39749908 0 209 45
13.38529968 3.59731007 26.38689995 0 206 48
13.53069973 3.87841010 26.45549965 0 226 28
13.20250034 2.95009995 26.22690010 0 159 95
13.35980034 3.22985005 26.28000069 0 174 80
13.63350010 3.42776990 26.30400085 0 181 73
13.76060009 3.72385001 26.40509987 0 211 43
13.39159966 2.81389999 26.24430084 0 164 90
13.53030014 3.10816002 26.32970047 0 189 65
13.84420013 3.28183007 26.29000092 0 177 77
9.83963966 6.14409018 26.88759995 98 255 0
9.98766041 6.38036013 26.92519951 109 255 0
9.75037956 5.86410999 26.89999962 102 255 0
9.96786976 6.05186987 26.96279907 121 255 0
10.14610004 6.27121019 26.92840004 110 255 0
9.72336960 5.53852987 26.95450020 118 255 0
9.86742020 5.77914000 27.00289917 133 255 0
10.12580013 5.94161987 26.96769905 122 255 0
10.28950024 6.17040014 26.96929932 123 255 0
9.85464001 5.44412994 27.02300072 139 255 0
9.97978020 5.69722986 27.11599922 166 255 0
10.23799992 5.85911989 27.08180046 156 255 0
10.38570023 6.09632015 27.11910057 167 255 0
9.93706989 5.38371992 27.20879936 193 255 0
10.10630035 5.60613012 27.19449997 189 255 0
10.34910011 5.77734995 27.19680023 189 255 0
10.54419994 5.98695993 27.12739944 169 255 0
10.04389954 5.30629015 27.33289909 230 255 0
10.23219967 5.51539993 27.27440071 213 255 0
10.45919991 5.69632006 27.31299973 224 255 0
10.62199974 5.92363024 27.31459999 225 255 0
10.16870022 5.21626997 27.41390038 254 255 0
10.37320042 5.41477013 27.32029915 226 255 0
10.55189991 5.62593985 27.46529961 255 240 0
10.72649956 5.84521008 27.44050026 255 248 0
10.31250000 5.11298990 27.45210075 255 244 0
10.45030022 5.35599995 27.50839996 255 228 0
10.69229984 5.52638006 27.51320076 255 226 0
10.88840008 5.73391008 27.44479942 255 246 0
10.44839954 5.01519012 27.50970078 255 228 0
10.57390022 5.26677990 27.59199905 255 203 0
10.84500027 5.41915989 27.53660011 255 219 0
11.02950001 5.63445997 27.49469948 255 231 0
10.60820007 4.90061998 27.51659966 255 225 0
10.74619961 5.14550018 27.57239914 255 209 0
11.04030037 5.28558016 27.47509956 255 237 0
11.18330002 5.52756977 27.52029991 255 224 0
10.77670002 4.77992010 27.50830078 255 228 0
10.93610001 5.01255989 27.52059937 255 224 0
11.17689991 5.18809986 27.53730011 255 219 0
11.36359978 5.40521002 27.49600029 255 231 0
10.95419979 4.65285015 27.48500061 255 234 0
11.09340000 4.90095997 27.54039955 255 218 0
11.35680008 5.06376982 27.51519966 255 225 0
11.55809975 5.27437019 27.44849968 255 246 0
11.15789986 4.50734997 27.41279984 253 255 0
11.31980038 4.74368000 27.42510033 255 252 0
11.56400013 4.92224979 27.44429970 255 246 0
11.76739979 5.13465023 27.37809944 243 255 0
11.36750031 4.35762978 27.33510017 231 255 0
11.52670002 4.59913015 27.35589981 237 255 0
11.79520035 4.76557016 27.33399963 230 255 0
11.92819977 5.02312994 27.40419960 251 255 0
11.56149960 4.21875000 27.29450035 219 255 0
11.72189999 4.46215010 27.31529999 225 255 0
12.06480026 4.58458996 27.15959930 178 255 0
12.19989967 4.84614992 27.22960091 199 255 0
11.79189968 4.05428982 27.18919945 187 255 0
11.91829967 4.32423019 27.27739906 213 255 0
12.22739983 4.47031021 27.19129944 188 255 0
12.41870022 4.69997978 27.16020012 179 255 0
12.02439976 3.88823009 27.08749962 157 255 0
12.17029953 4.14927006 27.14179993 173 255 0
12.50170040 4.28576994 27.02449989 139 255 0
12.67689991 4.53012991 27.02720070 139 255 0
12.36740017 3.64456010 26.78930092 70 255 0
12.42490005 3.97236991 27.01020050 135 255 0
12.77910042 4.09897995 26.86210060 91 255 0
12.93770027 4.35837984 26.89819908 101 255 0
12.58259964 3.49038005 26.73760033 54 255 0
12.73789978 3.75641990 26.78319931 68 255 0
13.02130032 3.93399000 26.77029991 64 255 0
13.20100021 4.18473005 26.77339935 65 255 0
12.89649963 3.26678991 26.51600075 0 244 10
12.97939968 3.58779001 26.69330025 41 255 0
13.26550007 3.76746988 26.68230057 38 255 0
13.46679974 4.00923014 26.65259933 29 255 0
13.17679977 3.06669998 26.36540031 0 200 54
13.33740044 3.34131002 26.41060066 0 213 41
13.62889957 3.52535009 26.40209961 0 210 44
13.77470016 3.80811000 26.47080040 0 231 23
13.40760040 2.90117002 26.30890083 0 183 71
13.56009960 3.18479991 26.37030029 0 201 53
13.83889961 3.37989998 26.38780022 0 206 48
9.86287022 6.24131012 26.87779999 95 255 0
10.02960014 6.46700001 26.87070084 94 255 0
9.79528046 5.94751978 26.83530045 83 255 0
10.00959969 6.13778019 26.90780067 104 255 0
10.15779972 6.37455988 26.94589996 115 255 0
9.73575020 5.64338017 26.97030067 123 255 0
9.86480045 5.89286995 27.05520058 148 255 0
10.16779995 6.02731991 26.91259956 106 255 0
10.30090046 6.27381992 26.98649979 127 255 0
9.84842968 5.56162977 27.08320045 156 255 0
10.02149963 5.78208017 27.06040001 149 255 0
10.24940014 5.96295023 27.09810066 160 255 0
10.42829990 6.18191004 27.06450081 151 255 0
10.00839996 5.44713020 27.08130074 156 255 0
10.17870045 5.67090988 27.06760025 151 255 0
10.37590027 5.87161016 27.17729950 183 255 0
10.55510044 6.09036016 27.14389992 174 255 0
10.08570004 5.38983011 27.27680016 213 255 0
10.27429962 5.59949017 27.21870041 196 255 0
10.48589993 5.79029989 27.29319954 218 255 0
10.66499996 6.00837994 27.26000023 208 255 0
10.26080036 5.26478004 27.24279976 203 255 0
10.39589977 5.51131010 27.30879974 222 255 0
10.61089993 5.69989014 27.37500000 242 255 0
10.77390003 5.92714024 27.37719917 243 255 0
10.33909988 5.20669985 27.43110085 255 251 0
10.46090031 5.45994997 27.52309990 255 223 0
10.73540020 5.60985994 27.45809937 255 243 0
10.93179989 5.81796980 27.39019966 246 255 0
10.52659988 5.07292986 27.37470055 242 255 0
10.64910030 5.32843018 27.46629906 255 240 0
10.87170029 5.51257992 27.51630020 255 225 0
11.07310009 5.71821022 27.44009972 255 248 0
10.63479996 4.99413013 27.49510002 255 231 0
10.77280045 5.23886013 27.55159950 255 215 0
11.06690025 5.37909985 27.45459938 255 243 0
11.21000004 5.62096977 27.50029945 255 230 0
10.84010029 4.84781981 27.40859985 252 255 0
10.96269989 5.10599995 27.49950027 255 231 0
11.22500038 5.26827002 27.47340012 255 238 0
11.40769958 5.48853016 27.44129944 255 248 0
11.01389980 4.72325993 27.39410019 248 255 0
11.17080021 4.96103001 27.41559982 254 255 0
11.41380024 5.13837004 27.43409920 255 249 0
11.63790035 5.33702993 27.32500076 228 255 0
11.22229958 4.57459021 27.31340027 224 255 0
11.38080025 4.81471014 27.33480072 231 255 0
11.66110039 4.97211981 27.28630066 216 255 0
11.81200027 5.21781015 27.32320023 227 255 0
11.41110039 4.43948984 27.27840042 213 255 0
11.55319977 4.69283009 27.33399963 230 255 0
11.89330006 4.81492996 27.17639923 183 255 0
11.99120045 5.09539986 27.31529999 225 255 0
11.61830044 4.29143000 27.21229935 194 255 0
11.77050018 4.54136992 27.25070000 205 255 0
12.09130001 4.67861986 27.13780022 172 255 0
12.26340008 4.91839981 27.14069939 173 255 0
11.83590031 4.13605022 27.13240051 171 255 0
11.96269989 4.40622997 27.22120094 197 255 0
12.27219963 4.55280018 27.13559914 171 255 0
12.44530010 4.79394007 27.13870049 172 255 0
12.12209988 3.93270993 26.92980003 111 255 0
12.25119972 4.20738983 27.01829910 137 255 0
12.58399963 4.34521008 26.90169907 103 255 0
12.76019955 4.59090996 26.90500069 103 255 0
12.40740013 3.72989988 26.74040031 55 255 0
12.48810005 4.04236984 26.92029953 108 255 0
12.86209965 4.15820980 26.73950005 55 255 0
13.00259972 4.43018007 26.80960083 76 255 0
12.66390038 3.54693007 26.61389923 17 255 0
12.82030010 3.81419992 26.66010094 32 255 0
13.06690025 4.01674986 26.71419907 47 255 0
13.24699974 4.26791000 26.71780014 48 255 0
12.97859955 3.32326007 26.39249992 0 207 47
13.08129978 3.63271999 26.53750038 0 250 4
13.40779972 3.78963995 26.46159935 0 228 26
13.61100006 4.03418016 26.43269920 0 219 35
13.22200012 3.14915991 26.30760002 0 183 71
13.38770008 3.42091990 26.34530067 0 194 60
13.67000008 3.61154008 26.35370064 0 196 58
13.47200012 2.97025990 26.21839905 0 157 97
13.61069965 3.26425004 26.30489922 0 182 72
13.80070019 3.12926006 26.32449913 0 187 67
9.79473972 5.99980021 26.77459908 65 255 0
10.00979996 6.19029999 26.84690094 86 255 0
10.15839958 6.42745018 26.88489914 97 255 0
9.73886967 5.69246006 26.90060043 102 255 0
9.89420033 5.92586994 26.92250061 109 255 0
10.13799953 6.09777021 26.92329979 109 255 0
10.30179977 6.32644987 26.92530060 109 255 0
9.83749008 5.62045002 27.04929924 146 255 0
9.99207020 5.85302019 27.07119942 153 255 0
10.26570034 6.00559998 27.00119972 132 255 0
10.41390038 6.24306011 27.03890038 143 255 0
9.99380970 5.50843000 27.05599976 148 255 0
10.14890003 5.74198008 27.07780075 154 255 0
10.37720013 5.92324018 27.11599922 166 255 0
10.55669975 6.14240980 27.08239937 156 255 0
10.07139969 5.45095015 27.25130081 206 255 0
10.26000023 5.66059017 27.19300079 189 255 0
10.48760033 5.84162998 27.23180008 200 255 0
10.65089989 6.06930017 27.23380089 201 255 0
10.21189976 5.34980011 27.29649925 219 255 0
10.40130043 5.55955982 27.23850060 202 255 0
10.61299992 5.75092983 27.31340027 224 255 0
10.77639961 5.97858000 27.31550026 225 255 0
10.34070015 5.25679016 27.36980057 240 255 0
10.49479961 5.48964977 27.39130020 247 255 0
10.72150040 5.67060995 27.43149948 255 250 0
10.91790009 5.87869978 27.36330032 239 255 0
10.48079967 5.15581989 27.41819954 255 255 0
10.63519955 5.38921022 27.43969917 255 248 0
10.86200047 5.57069016 27.48060036 255 236 0
11.04240036 5.78856993 27.44779968 255 246 0
10.63679981 5.04371023 27.43339920 255 250 0
10.75899982 5.29953003 27.52459908 255 223 0
11.01930046 5.46045017 27.49670029 255 231 0
11.19620037 5.68150997 27.47279930 255 238 0
10.78909969 4.93412018 27.45929909 255 242 0
10.94869995 5.16662979 27.47200012 255 238 0
11.19390011 5.33936977 27.48019981 255 236 0
11.37639999 5.55912018 27.44790077 255 246 0
10.96650028 4.80702019 27.43540001 255 249 0
11.10599995 5.05489016 27.49119949 255 233 0
11.38669968 5.20692015 27.43169975 255 250 0
11.54870033 5.44113016 27.44260025 255 247 0
11.17000008 4.66163015 27.36240005 238 255 0
11.34930038 4.88656998 27.34070015 232 255 0
11.57639980 5.07621002 27.39439964 248 255 0
11.77980042 5.28869009 27.32850075 228 255 0
11.37940025 4.51201010 27.28380013 215 255 0
11.53880024 4.75336981 27.30509949 222 255 0
11.80729961 4.91972017 27.28330040 215 255 0
11.94060040 5.17700005 27.35400009 236 255 0
11.57330036 4.37314987 27.24250031 203 255 0
11.75139999 4.60479021 27.22979927 199 255 0
12.04039955 4.76159000 27.17560005 183 255 0
12.19359970 5.01115990 27.21220016 194 255 0
11.80340004 4.20887995 27.13629913 171 255 0
11.94789982 4.46671009 27.19140053 188 255 0
12.23910046 4.62463999 27.13890076 172 255 0
12.43050003 4.85430002 27.10820007 163 255 0
12.00010014 4.06780005 27.10099983 161 255 0
12.12749958 4.33965015 27.18939972 187 255 0
12.47599983 4.46362019 27.03809929 143 255 0
12.69309998 4.68192005 26.96579933 121 255 0
12.35540009 3.81573009 26.77610016 65 255 0
12.42230034 4.13622999 26.98110008 126 255 0
12.78999996 4.25398016 26.80769920 75 255 0
12.91069984 4.53577995 26.91090012 105 255 0
12.61579990 3.62992001 26.64019966 26 255 0
12.76710033 3.89937997 26.69459915 41 255 0
13.06999969 4.06526995 26.64879990 28 255 0
13.21189976 4.33975983 26.71839905 49 255 0
12.96640015 3.38074994 26.35160065 0 195 59
13.03209972 3.71513009 26.56270027 2 255 0
13.27600002 3.92273998 26.62599945 21 255 0
13.49689960 4.15283012 26.56380081 3 255 0
13.18630028 3.22294998 26.30719948 0 183 71
13.32339954 3.51312995 26.39410019 0 208 46
13.65820026 3.66897988 26.31180000 0 183 71
13.78479958 3.96371007 26.41379929 0 214 40
13.45479965 3.03093004 26.18449974 0 146 108
13.59370041 3.32481003 26.27099991 0 171 83
13.82890034 3.54815006 26.36190033 0 198 56
13.80319977 3.17676997 26.25769997 0 168 86
9.76591015 6.03018999 26.80470085 74 255 0
10.01019955 6.20239019 26.80380058 74 255 0
10.15939999 6.44000006 26.84110069 85 255 0
9.71022987 5.72378016 26.93129921 112 255 0
9.86540031 5.95668983 26.95240021 118 255 0
10.12390041 6.11893988 26.91629982 107 255 0
10.27250004 6.35624981 26.95330048 118 255 0
9.82336998 5.64202976 27.04389954 145 255 0
9.99291992 5.86485004 27.02910042 140 255 0
10.23639965 6.03621006 27.02980042 140 255 0
10.40009975 6.26432991 27.03100014 141 255 0
9.94647980 5.55324984 27.13080025 170 255 0
10.11989975 5.77335978 27.10709953 163 255 0
10.34790039 5.95421982 27.14439964 174 255 0
10.52709961 6.17277002 27.10989952 164 255 0
10.07639980 5.45965004 27.20120049 191 255 0
10.26159954 5.67216015 27.15099907 176 255 0
10.47399998 5.86324978 27.22450066 198 255 0
10.63739967 6.09084988 27.22570038 198 255 0
10.23250008 5.34757996 27.21120071 194 255 0
10.36810017 5.59407997 27.27619934 213 255 0
10.59959984 5.77265978 27.30599976 222 255 0
10.75889969 6.00259018 27.31609917 225 255 0
10.37349987 5.24606991 27.25830078 207 255 0
10.47739983 5.51421022 27.39349937 248 255 0
10.72449970 5.68244982 27.38890076 246 255 0
10.90460014 5.90037012 27.35499954 236 255 0
10.46329975 5.18060017 27.42110062 255 253 0
10.62180042 5.41119003 27.43300056 255 250 0
10.88179970 5.57212019 27.40320015 250 255 0
11.06280041 5.79075003 27.36949921 240 255 0
10.62320042 5.06567001 27.42740059 255 252 0
10.77840042 5.30001020 27.44809914 255 246 0
11.03540039 5.46407986 27.42819977 255 252 0
11.22150040 5.68081999 27.38610077 246 255 0
10.81210041 4.93032980 27.37509918 242 255 0
10.95180035 5.17753983 27.43040085 255 251 0
11.21039963 5.34256983 27.41180038 253 255 0
11.41079998 5.55281019 27.34410095 233 255 0
11.03520012 4.77075005 27.25639915 207 255 0
11.17660046 5.02092981 27.31150055 223 255 0
11.43789959 5.18802977 27.29459953 219 255 0
11.60999966 5.41872978 27.28759956 216 255 0
11.22299957 4.63601017 27.21850014 196 255 0
11.38230038 4.87681007 27.23900032 202 255 0
11.65019989 5.04277992 27.21500015 195 255 0
11.80179977 5.28883982 27.25099945 205 255 0
11.43309975 4.48542976 27.14060020 173 255 0
11.59389973 4.72856998 27.16110039 179 255 0
11.89980030 4.87392998 27.07049942 152 255 0
12.05329990 5.12335014 27.10650063 163 255 0
11.62779999 4.34568977 27.09980011 161 255 0
11.77219963 4.60239983 27.15430069 177 255 0
12.09799957 4.73704004 27.03160095 141 255 0
12.25259972 4.98845005 27.06739998 151 255 0
11.85849953 4.18037987 26.99430084 130 255 0
11.93789959 4.48453999 27.17530060 183 255 0
12.26109982 4.62221003 27.06290054 150 255 0
12.47169971 4.84158993 26.99760056 131 255 0
12.14439964 3.97601008 26.79140091 70 255 0
12.25710011 4.26409006 26.91259956 106 255 0
12.57190037 4.41385984 26.82819939 81 255 0
12.74870014 4.65987015 26.83049965 82 255 0
12.41149998 3.78484011 26.63509941 24 255 0
12.54870033 4.06176996 26.71400070 47 255 0
12.86810017 4.21439981 26.63199997 23 255 0
13.00979996 4.48725986 26.70109940 44 255 0
12.72229958 3.56263995 26.40839958 0 213 41
12.80679989 3.88160992 26.58659935 10 255 0
13.09200001 4.06037998 26.57320023 5 255 0
13.25409985 4.32430983 26.60899925 17 255 0
13.02320004 3.34731007 26.21170044 0 154 100
13.16100025 3.63685012 26.29809952 0 180 74
13.45160007 3.81996012 26.28720093 0 177 77
13.61730003 4.08955002 26.32299995 0 187 67
13.24380016 3.18863010 26.16799927 0 142 112
13.40620041 3.46483994 26.21290016 0 154 100
13.68019962 3.66242003 26.23660088 0 162 92
13.45639992 3.03555989 26.14389992 0 134 120
13.61509991 3.31712008 26.19680023 0 150 104
13.80560017 3.18165994 26.21619987 0 156 98
9.75800037 6.03893995 26.83919907 84 255 0
10.00189972 6.21071005 26.83749962 84 255 0
10.15079975 6.44792986 26.87389946 94 255 0
9.74501038 5.70324993 26.85860062 90 255 0
9.90091038 5.93709993 26.87879944 96 255 0
10.15649986 6.10222006 26.85120010 88 255 0
10.29430008 6.34702015 26.91440010 106 255 0
9.82623005 5.64458990 27.05229950 147 255 0
9.99944019 5.86473989 27.02770042 140 255 0
10.25819969 6.02657986 26.99189949 129 255 0
10.42220020 6.25511980 26.99230003 130 255 0
9.96772957 5.54299021 27.09469986 160 255 0
10.15649986 5.75342989 27.03450012 142 255 0
10.38549995 5.93508005 27.07119942 153 255 0
10.56540012 6.15438986 27.03599930 142 255 0
10.09790039 5.44938993 27.16550064 180 255 0
10.25290012 5.68254995 27.18549919 186 255 0
10.47679996 5.86605978 27.23159981 200 255 0
10.64420033 6.09116983 27.22310066 197 255 0
10.22389984 5.35878992 27.24650002 204 255 0
10.36320019 5.60238981 27.30179977 221 255 0
10.60630035 5.77322006 27.30439949 222 255 0
10.75349998 6.01031017 27.34000015 232 255 0
10.34920025 5.26856995 27.32880020 228 255 0
10.48820019 5.51243019 27.38400078 245 255 0
10.73130035 5.68322992 27.38739967 246 255 0
10.94449997 5.88154984 27.28249931 215 255 0
10.48960018 5.16757011 27.37750053 243 255 0
10.61250019 5.42286015 27.46739960 255 240 0
10.86810017 5.58585978 27.44549942 255 246 0
11.08650017 5.78147984 27.33250046 230 255 0
10.62989998 5.06659985 27.42779922 255 252 0
10.78509998 5.30095005 27.44759941 255 246 0
11.07979965 5.44118023 27.34880066 234 255 0
11.22830009 5.68146992 27.38409996 245 255 0
10.79850006 4.94548988 27.41909981 255 254 0
10.93789959 5.19224977 27.47360039 255 238 0
11.20440006 5.35133982 27.43680000 255 249 0
11.40450001 5.56098986 27.36829948 240 255 0
10.98820019 4.80916023 27.36949921 240 255 0
11.14540005 5.04673004 27.38920021 246 255 0
11.43159962 5.19652987 27.31970024 226 255 0
11.63420010 5.40855980 27.25160027 206 255 0
11.22939968 4.63616991 27.21969986 196 255 0
11.37170029 4.88843012 27.27359962 212 255 0
11.63930035 5.05389023 27.24880028 205 255 0
11.80830002 5.28894997 27.24959946 205 255 0
11.40550041 4.50944996 27.21030045 193 255 0
11.54850006 4.76331997 27.26409912 210 255 0
11.88840008 4.88472986 27.10440063 163 255 0
12.00570011 5.15534019 27.20750046 192 255 0
11.63399982 4.34538984 27.10140038 162 255 0
11.79609966 4.59043980 27.12100029 167 255 0
12.08629990 4.74784994 27.06550026 151 255 0
12.25899982 4.98789978 27.06660080 151 255 0
11.80799961 4.22007990 27.10600090 163 255 0
11.95759964 4.47542000 27.15080070 176 255 0
12.26729965 4.62164021 27.06310081 150 255 0
12.49639988 4.82963991 26.96330070 121 255 0
12.11499977 3.99985003 26.86079979 91 255 0
12.28559971 4.24791002 26.87190056 94 255 0
12.57789993 4.41251993 26.82869911 81 255 0
12.73600006 4.66979980 26.86359978 91 255 0
12.41709995 3.78296995 26.63759995 25 255 0
12.53619957 4.07241011 26.74900055 58 255 0
12.85519981 4.22433996 26.66620064 33 255 0
12.99670029 4.49692011 26.73430061 53 255 0
12.67780018 3.59559011 26.50270081 0 240 14
12.81239986 3.87949991 26.58849907 10 255 0
13.07880020 4.07026005 26.60740089 16 255 0
13.22140026 4.34544992 26.67530060 36 255 0
12.96870041 3.38661003 26.32229996 0 187 67
13.05410004 3.70969009 26.49860001 0 239 15
13.39960003 3.85363007 26.38750076 0 206 48
13.60319996 4.09826994 26.35639954 0 197 57
13.23029995 3.19844007 26.20439911 0 152 102
13.39249992 3.47428989 26.24830055 0 165 89
13.68550014 3.65904999 26.23830032 0 162 92
13.43780041 3.04876995 26.18849945 0 148 106
13.60109997 3.32663012 26.23229980 0 160 94
13.63210011 2.90854001 26.20000076 0 151 103
13.79129982 3.19134998 26.25169945 0 166 88
9.89702034 6.30412006 26.75979996 61 255 0
9.79644012 6.03038979 26.80139923 73 255 0
10.05550003 6.19336987 26.76320076 62 255 0
10.20119953 6.43385983 26.80780029 75 255 0
9.76928997 5.70433998 26.85799980 90 255 0
9.92512035 5.93829012 26.87739944 95 255 0
10.18439960 6.10103989 26.84029961 85 255 0
10.31840038 6.34843016 26.91160011 106 255 0
9.89750004 5.61253023 26.93549919 112 255 0
10.05319977 5.84656000 26.95490074 118 255 0
10.28240013 6.02824020 26.99020004 129 255 0
10.46189976 6.24770021 26.95409966 118 255 0
9.99207020 5.54488993 27.09460068 160 255 0
10.18080044 5.75518990 27.03370094 142 255 0
10.40970039 5.93701982 27.06979942 152 255 0
10.57369995 6.16556978 27.06940079 152 255 0
10.13729954 5.44080019 27.13010025 170 255 0
10.32299995 5.65391016 27.07839966 154 255 0
10.50500011 5.86604977 27.22150040 197 255 0
10.66839981 6.09365988 27.22109985 197 255 0
10.24829960 5.36124992 27.24690056 204 255 0
10.40310001 5.59458017 27.26609993 210 255 0
10.63059998 5.77596998 27.30340004 221 255 0
10.82670021 5.98423004 27.23259926 200 255 0
10.40460014 5.24909019 27.25919914 208 255 0
10.55990028 5.48340988 27.27829933 213 255 0
10.76780033 5.67854977 27.36039925 238 255 0
10.96879959 5.88430977 27.28120041 214 255 0
10.56120014 5.13662004 27.27339935 212 255 0
10.70110035 5.38276005 27.32760048 228 255 0
10.94600010 5.55508995 27.33169937 229 255 0
11.10659981 5.78695011 27.34009933 232 255 0
10.73419952 5.01237011 27.25489998 207 255 0
10.87059975 5.26287985 27.31749916 225 255 0
11.10420036 5.44419003 27.34880066 234 255 0
11.26970005 5.67443991 27.34860039 234 255 0
10.90810013 4.88747978 27.23880005 202 255 0
11.04920006 5.13683987 27.29240036 218 255 0
11.31369972 5.30052996 27.26429939 210 255 0
11.46350002 5.54341984 27.29879951 219 255 0
11.06219959 4.77674007 27.26810074 210 255 0
11.24120045 5.00156021 27.24390030 204 255 0
11.50339985 5.16929007 27.22590065 198 255 0
11.68929958 5.39296007 27.19149971 188 255 0
11.32489967 4.58780003 27.07640076 154 255 0
11.46430016 4.84508991 27.13820076 172 255 0
11.69869995 5.03437996 27.18160057 185 255 0
11.85050011 5.28112984 27.21590042 195 255 0
11.45979977 4.49079990 27.15349960 177 255 0
11.62059975 4.73395014 27.17230034 182 255 0
11.96599960 4.85312986 27.00399971 133 255 0
12.10219955 5.11458015 27.07229996 153 255 0
11.72729969 4.29836988 26.96910095 122 255 0
11.85569954 4.56912994 27.05579948 148 255 0
12.16469955 4.71566010 26.96610069 121 255 0
12.36100006 4.94330978 26.92410088 109 255 0
11.88930035 4.18182993 27.00009918 132 255 0
12.01770020 4.45390987 27.08629990 157 255 0
12.38280010 4.56558990 26.89730072 101 255 0
12.57639980 4.79809999 26.86420059 91 255 0
12.26319981 3.91273999 26.63030052 23 255 0
12.31029987 4.24973011 26.87560081 95 255 0
12.67619991 4.36681986 26.69799995 43 255 0
12.79800034 4.64890003 26.79899979 72 255 0
12.46430016 3.76800990 26.60110092 14 255 0
12.63379955 4.02427006 26.61969948 20 255 0
12.95440006 4.17750978 26.53680038 0 250 4
13.11610031 4.44059992 26.57080078 5 255 0
12.81140041 3.51814008 26.30920029 0 183 71
12.87399960 3.85541010 26.52689934 0 247 7
13.14130020 4.04705000 26.54540062 0 252 2
13.38049984 4.26465988 26.44709969 0 224 30
13.08530045 3.32085991 26.16370010 0 140 114
13.22840023 3.60854006 26.23999977 0 163 91
13.53899956 3.77995992 26.19499969 0 149 105
13.68620014 4.06305981 26.26189995 0 169 85
13.29699993 3.16830993 26.13750076 0 133 121
13.45510006 3.44860005 26.18880081 0 148 106
13.74890041 3.63415003 26.17830086 0 145 109
13.54269981 2.99120998 26.05739975 0 109 145
13.70250034 3.27445006 26.10840034 0 124 130
9.91308975 6.31443024 26.75970078 61 255 0
10.07680035 6.54317999 26.75860023 60 255 0
9.81268978 6.04074001 26.80190086 74 255 0
10.04220009 6.22235012 26.83530045 83 255 0
10.20600033 6.45106983 26.83419991 83 255 0
9.78573990 5.71479988 26.85930061 90 255 0
9.94145012 5.94888020 26.87809944 96 255 0
10.19690037 6.11406994 26.84950066 87 255 0
10.34980011 6.35031986 26.87540054 95 255 0
9.88516998 5.64418983 27.00849915 134 255 0
10.05490017 5.86742020 26.99150085 129 255 0
10.29870033 6.03928995 26.99060059 129 255 0
10.46259975 6.26796007 26.98959923 129 255 0
10.00870037 5.55602980 27.09620094 160 255 0
10.19729996 5.76629019 27.03470039 142 255 0
10.41069984 5.95815992 27.10580063 163 255 0
10.57419968 6.18633986 27.10479927 163 255 0
10.13899994 5.46293020 27.16729927 181 255 0
10.29380035 5.69632006 27.18600082 186 255 0
10.53330040 5.87025976 27.19549942 189 255 0
10.70079994 6.09591007 27.18569946 186 255 0
10.26509953 5.37287998 27.24880028 205 255 0
10.40030003 5.61954021 27.31150055 223 255 0
10.65919971 5.78030014 27.27779961 213 255 0
10.82680035 6.00587988 27.26799965 210 255 0
10.42140007 5.26083994 27.26119995 209 255 0
10.54510021 5.51674986 27.35009956 235 255 0
10.76830006 5.70109987 27.39640045 249 255 0
11.00189972 5.88651991 27.24650002 204 255 0
10.52719975 5.18544006 27.38940048 246 255 0
10.66989994 5.42756987 27.43420029 255 249 0
10.92980003 5.58839989 27.40259933 250 255 0
11.12740040 5.79675007 27.33200073 229 255 0
10.68350029 5.07336998 27.40539932 251 255 0
10.84280014 5.30552006 27.41510010 254 255 0
11.12100029 5.45654011 27.35009956 235 255 0
11.30340004 5.67662001 27.31469917 225 255 0
10.86040020 4.94635010 27.38010025 243 255 0
11.01659966 5.18282986 27.39839935 249 255 0
11.27960014 5.34548998 27.36949921 240 255 0
11.42840004 5.58716011 27.40329933 250 255 0
11.06289959 4.80077982 27.30550003 222 255 0
11.22469997 5.03662014 27.31520081 225 255 0
11.50739956 5.18987989 27.25340080 206 255 0
11.68850040 5.41588020 27.22710037 198 255 0
11.27120018 4.65094995 27.22540092 198 255 0
11.43459988 4.88910007 27.23500061 201 255 0
11.68080044 5.06917000 27.25200081 206 255 0
11.85410023 5.30168009 27.24290085 203 255 0
11.47710037 4.50290012 27.15690041 177 255 0
11.62909985 4.75207996 27.19210052 188 255 0
11.94760036 4.88800001 27.07430077 154 255 0
12.08300018 5.14876986 27.14189911 174 255 0
11.71030045 4.33503008 27.04070091 144 255 0
11.87279987 4.58123016 27.05879974 149 255 0
12.14589977 4.75090981 27.03630066 142 255 0
12.33689976 4.98043013 27.00219917 132 255 0
11.87180042 4.21898985 27.07150078 153 255 0
12.03489971 4.46616983 27.08950043 158 255 0
12.33180046 4.62172985 27.02630043 139 255 0
12.53789997 4.84407997 26.96719933 122 255 0
12.13949966 4.02617979 26.90309906 103 255 0
12.32750034 4.26167011 26.87919998 96 255 0
12.63809967 4.41436005 26.80150032 73 255 0
12.77760029 4.68388987 26.86829948 93 255 0
12.48169994 3.77940011 26.60569954 15 255 0
12.57369995 4.08882999 26.76539993 62 255 0
12.91569996 4.22533989 26.63999939 26 255 0
13.09519958 4.47558022 26.64010048 26 255 0
12.79259968 3.55525994 26.38059998 0 204 50
12.89140034 3.86685991 26.53120041 0 249 5
13.13959980 4.07096004 26.58219910 8 255 0
13.32559967 4.32051992 26.57410049 6 255 0
13.08440018 3.34487009 26.20210075 0 151 103
13.18970013 3.65797997 26.34350014 0 193 61
13.47980022 3.84078002 26.33049965 0 189 65
13.66450024 4.09832001 26.33099937 0 189 65
13.33310032 3.16566992 26.11039925 0 124 130
13.49139977 3.44660997 26.16090012 0 139 115
13.72749996 3.67051005 26.24799919 0 165 89
13.50389957 3.04275990 26.16099930 0 139 115
13.64340019 3.33799005 26.24390030 0 164 90
13.83380032 3.20298004 26.26390076 0 170 84
9.91744041 6.34616995 26.75440025 59 255 0
9.82783985 6.06521988 26.77000046 64 255 0
10.07229996 6.23790979 26.76689911 63 255 0
10.24030018 6.46528006 26.75639915 60 255 0
9.75858021 5.76985979 26.93580055 112 255 0
9.93159008 5.99066019 26.90929985 105 255 0
10.20520020 6.14364004 26.83519936 83 255 0
10.33909988 6.39140987 26.90539932 103 255 0
9.89002991 5.67622995 27.00419998 133 255 0
10.05970001 5.89949989 26.98670006 127 255 0
10.31859970 6.06176996 26.94949913 117 255 0
10.48270035 6.29095984 26.94799995 116 255 0
10.02840042 5.57753992 27.05610085 148 255 0
10.21710014 5.78824997 26.99419975 130 255 0
10.41549969 5.99052000 27.10040092 161 255 0
10.59480000 6.20934010 27.06340027 151 255 0
10.14410019 5.49526978 27.16290092 180 255 0
10.29880047 5.72874022 27.18110085 185 255 0
10.53829956 5.90278006 27.19009972 187 255 0
10.68970013 6.13807011 27.21520042 195 255 0
10.28549957 5.39431000 27.20899963 193 255 0
10.44040012 5.62831020 27.22710037 198 255 0
10.64840031 5.82319021 27.30760002 222 255 0
10.88059998 6.00929022 27.15640068 177 255 0
10.42290020 5.29620981 27.26549911 210 255 0
10.58189964 5.52792978 27.27479935 213 255 0
10.78979969 5.72355986 27.35589981 237 255 0
11.00689983 5.91927004 27.24049950 202 255 0
10.59529972 5.17257023 27.24489975 204 255 0
10.72319984 5.42758989 27.32419968 227 255 0
11.00080013 5.57897997 27.25749969 207 255 0
11.14929962 5.81954002 27.29109955 217 255 0
10.72080040 5.08304024 27.33119965 229 255 0
10.88070011 5.31617022 27.34040070 232 255 0
11.12629986 5.48947001 27.34460068 233 255 0
11.32559967 5.69926023 27.27389908 213 255 0
10.89820004 4.95569992 27.30620003 222 255 0
11.06739998 5.18469000 27.29809952 219 255 0
11.35270023 5.33476019 27.22570038 198 255 0
11.53289986 5.56002998 27.19869995 190 255 0
11.12170029 4.79482985 27.18880081 187 255 0
11.29290009 5.02649021 27.18079948 185 255 0
11.52560043 5.21448994 27.22200012 197 255 0
11.71119976 5.43821001 27.18659973 186 255 0
11.32660007 4.64744997 27.11779976 166 255 0
11.48670006 4.88994980 27.13549995 171 255 0
11.77320004 5.04575014 27.07530022 154 255 0
11.90810013 5.30495977 27.14270020 174 255 0
11.52050018 4.50806999 27.07539940 154 255 0
11.68179989 4.75246000 27.09309959 159 255 0
11.98810005 4.89796019 27.00049973 132 255 0
12.14659977 5.14602995 27.02519989 139 255 0
11.76710033 4.33041000 26.93409920 112 255 0
11.94789982 4.56605005 26.91780090 107 255 0
12.18690014 4.76054001 26.96279907 121 255 0
12.41479969 4.96866989 26.86059952 91 255 0
12.02060032 4.14765978 26.78829956 69 255 0
12.16860008 4.41083002 26.83959961 84 255 0
12.42319965 4.59861994 26.86059952 91 255 0
12.65380001 4.80896997 26.75909996 61 255 0
12.31649971 3.93410993 26.57099915 5 255 0
12.41790009 4.23579979 26.71439934 47 255 0
12.77180004 4.36331987 26.56139946 2 255 0
12.89480019 4.64771986 26.66119957 32 255 0
12.55819988 3.75998998 26.46730042 0 230 24
12.71059990 4.03079987 26.51810074 0 245 9
12.99510002 4.20944023 26.50090027 0 240 14
13.15690041 4.47325993 26.53380013 0 249 5
12.90149975 3.51201010 26.18490028 0 146 108
12.95619965 3.85816002 26.41780090 0 215 39
13.29529953 4.00515985 26.31159973 0 183 71
13.49810028 4.24955988 26.27829933 0 174 80
13.14879990 3.33379006 26.08979988 0 118 136
13.28310013 3.62931991 26.18129921 0 145 109
13.57989979 3.81086993 26.16010094 0 139 115
13.74670029 4.08277988 26.19289970 0 149 105
13.37030029 3.17423010 26.04789925 0 106 148
13.53390026 3.45284009 26.08970070 0 118 136
13.79020023 3.66503000 26.14380074 0 134 120
13.54629993 3.04775000 26.09070015 0 118 136
13.70559978 3.33085990 26.14039993 0 133 121
13.90149975 3.19211006 26.15299988 0 137 117
9.95543957 6.35282993 26.68180084 38 255 0
9.85492992 6.07810020 26.72509956 50 255 0
10.08530045 6.26070023 26.75760078 60 255 0
10.23460007 6.49937010 26.79159927 70 255 0
9.79994965 5.77180004 26.85569954 89 255 0
9.95553970 6.00605011 26.87360001 94 255 0
10.18480015 6.18805981 26.90670013 104 255 0
10.36359978 6.40776014 26.86879921 93 255 0
9.94285011 5.67000008 26.89749908 101 255 0
10.09869957 5.90476990 26.91539955 106 255 0
10.34329987 6.07754993 26.91360092 106 255 0
10.47669983 6.32580996 26.98299980 127 255 0
10.00889969 5.62461996 27.12820053 169 255 0
10.21179962 5.82409000 27.03009987 140 255 0
10.45600033 5.99645996 27.02910042 140 255 0
10.60429955 6.23513985 27.06270027 150 255 0
10.15030003 5.52379990 27.17259979 183 255 0
10.30869961 5.75462008 27.18149948 185 255 0
10.54810047 5.92876005 27.19000053 187 255 0
10.73139954 6.14484978 27.14380074 174 255 0
10.28030014 5.43135023 27.24519920 204 255 0
10.43480015 5.66496992 27.26280022 209 255 0
10.65830040 5.84940004 27.30750084 222 255 0
10.87010002 6.04759979 27.19980049 190 255 0
10.40600014 5.34202003 27.32799911 228 255 0
10.56040001 5.57570982 27.34560013 234 255 0
10.81989956 5.73682022 27.31200027 224 255 0
11.03320026 5.93549013 27.20490074 192 255 0
10.60529995 5.19865990 27.24589920 204 255 0
10.74919987 5.44284010 27.28969955 217 255 0
10.97799969 5.62650013 27.32729912 228 255 0
11.15919971 5.84589005 27.29059982 217 255 0
10.78260040 5.07148981 27.21910095 196 255 0
10.92319965 5.32014990 27.27129936 211 255 0
11.13640022 5.51590014 27.34460068 233 255 0
11.36940002 5.70493984 27.20400047 192 255 0
10.90839958 4.98198986 27.30719948 222 255 0
11.07750034 5.21103001 27.29859924 219 255 0
11.34160042 5.37480021 27.26899910 211 255 0
11.52980042 5.59425020 27.22410011 198 255 0
11.12769985 4.82400990 27.19860077 190 255 0
11.29039955 5.06135988 27.20719910 192 255 0
11.56989956 5.21853018 27.15340042 177 255 0
11.72109985 5.46457005 27.18619919 186 255 0
11.32009983 4.68573999 27.15329933 177 255 0
11.49680042 4.91616011 27.13619995 171 255 0
11.73099995 5.10596991 27.17810059 184 255 0
11.92240047 5.32859993 27.13380051 171 255 0
11.49269962 4.56195021 27.15349960 177 255 0
11.70909977 4.76678991 27.05970001 149 255 0
11.99810028 4.92411995 27.00079918 132 255 0
12.13860035 5.18333006 27.05890083 149 255 0
11.74720001 4.37827015 26.99480057 130 255 0
11.92310047 4.61615992 26.98640060 127 255 0
12.19690037 4.78669977 26.96310043 121 255 0
12.40649986 5.00595999 26.89410019 100 255 0
11.92220020 4.25270987 27.00060081 132 255 0
12.08580017 4.50095987 27.01759911 137 255 0
12.43309975 4.62470007 26.86100006 91 255 0
12.64509964 4.84635019 26.79249954 71 255 0
12.29559994 3.98217010 26.63129997 23 255 0
12.42780018 4.26163006 26.71529961 47 255 0
12.68980026 4.44913006 26.72900009 52 255 0
12.88589954 4.68519020 26.69449997 41 255 0
12.49670029 3.83753991 26.60230064 14 255 0
12.66600037 4.09411001 26.61919975 20 255 0
12.98620033 4.24732018 26.53470039 0 249 5
13.14760017 4.51077986 26.56699944 4 255 0
12.80729961 3.61296010 26.37730026 0 203 51
12.89239979 3.93460989 26.55159950 0 255 0
13.19209957 4.10478020 26.51049995 0 243 11
13.46930027 4.29884005 26.34440041 0 193 61
13.13560009 3.37554002 26.13279915 0 131 123
13.25549984 3.68038011 26.24839973 0 165 89
13.57050037 3.84872007 26.19350052 0 149 105
13.71749973 4.13234997 26.25860023 0 168 86
13.32909966 3.23648000 26.13979912 0 133 121
13.48229980 3.52048993 26.19739914 0 150 104
13.78050041 3.70308995 26.17709923 0 144 110
13.53730011 3.08663011 26.12520027 0 129 125
13.69620037 3.36943007 26.17429924 0 143 111
13.88720036 3.23427010 26.19479942 0 149 105
9.98322964 6.37238979 26.68250084 38 255 0
10.13249969 6.61113024 26.71599960 48 255 0
9.88298988 6.09767008 26.72660065 51 255 0
10.12779999 6.27112007 26.72260094 50 255 0
10.27719975 6.51047993 26.75600052 59 255 0
9.81422043 5.80213022 26.89389992 100 255 0
9.98369980 6.02611017 26.87520027 94 255 0
10.24260044 6.18913984 26.83609962 83 255 0
10.40660000 6.41901016 26.83349991 83 255 0
9.93898964 5.71404982 26.98060036 126 255 0
10.09749985 5.94544983 26.98880005 128 255 0
10.37139988 6.09808016 26.91489983 106 255 0
10.50450039 6.34664011 26.98369980 127 255 0
10.11429977 5.58857012 26.94389915 115 255 0
10.24020004 5.84480000 27.03219986 141 255 0
10.49960041 6.00740004 26.99519920 130 255 0
10.61660004 6.26584005 27.09919930 161 255 0
10.18270016 5.54206991 27.16659927 180 255 0
10.33710003 5.77581978 27.18370056 186 255 0
10.57639980 5.95021009 27.19169998 188 255 0
10.75949955 6.16634989 27.14489937 174 255 0
10.32050037 5.44430017 27.22179985 197 255 0
10.46339989 5.68650007 27.26530075 210 255 0
10.72249985 5.84796000 27.23010063 199 255 0
10.93480015 6.04711008 27.12199974 168 255 0
10.49650002 5.31825018 27.19079971 188 255 0
10.63619995 5.56486988 27.24279976 203 255 0
10.88080025 5.73777008 27.24399948 204 255 0
11.07800007 5.94736004 27.17149925 182 255 0
10.62259960 5.22896004 27.27580070 213 255 0
10.77799988 5.46473980 27.29260063 218 255 0
11.03940010 5.62729979 27.25989914 208 255 0
11.23779964 5.83743000 27.18779945 187 255 0
10.82759953 5.08153009 27.18820000 187 255 0
10.98449993 5.31966019 27.20490074 192 255 0
11.19839954 5.51654005 27.27790070 213 255 0
11.39799976 5.72721004 27.20610046 192 255 0
10.99820042 4.95951986 27.18149948 185 255 0
11.15999985 5.19611979 27.18959999 187 255 0
11.43799973 5.35298014 27.13389969 171 255 0
11.62300014 5.57698011 27.09709930 160 255 0
11.20619965 4.80985022 27.09970093 161 255 0
11.35289955 5.06034994 27.14220047 174 255 0
11.63319969 5.21840000 27.08799934 157 255 0
11.80659962 5.45211983 27.07719994 154 255 0
11.39529991 4.67419004 27.06389999 151 255 0
11.56420040 4.91187000 27.06329918 151 255 0
11.88609982 5.04582024 26.93390083 112 255 0
12.00440025 5.31837988 27.03429985 142 255 0
11.62769985 4.50667000 26.94549942 115 255 0
11.80720043 4.74120998 26.92790031 110 255 0
12.06260014 4.92330980 26.93680000 113 255 0
12.25279999 5.15315008 26.90080070 103 255 0
11.77270031 4.40351009 27.00880051 134 255 0
11.97439957 4.62325001 26.94890022 116 255 0
12.27980042 4.77389002 26.86599922 92 255 0
12.49020004 4.99455023 26.79649925 71 255 0
12.09090042 4.17299986 26.73670006 54 255 0
12.27890015 4.40971994 26.71080017 47 255 0
12.57129955 4.57558012 26.66399956 32 255 0
12.71119976 4.84584999 26.72940063 52 255 0
12.43120003 3.92633009 26.43650055 0 221 33
12.52480030 4.23691988 26.59519958 12 255 0
12.84790039 4.38680983 26.50020027 0 240 14
12.98989964 4.66106987 26.56529999 3 255 0
12.66510010 3.75791001 26.35070038 0 195 59
12.76850033 4.06557989 26.49180031 0 237 17
13.09039974 4.22036982 26.40730095 0 212 42
13.29059982 4.46230984 26.37249947 0 201 53
12.95960045 3.54500008 26.16080093 0 139 115
13.04660034 3.87026000 26.33429909 0 190 64
13.42430019 3.99341989 26.16130066 0 139 115
13.61390018 4.24910021 26.15159988 0 136 118
13.22550011 3.35311007 26.03350067 0 102 152
13.36489964 3.64685988 26.11540031 0 126 128
13.65769958 3.83269000 26.10149956 0 122 132
13.43389988 3.20352006 26.01700020 0 97 157
13.59280014 3.48636007 26.06559944 0 111 143
13.86859989 3.68672991 26.08600044 0 117 137
13.60569954 3.08067012 26.06850052 0 112 142
13.76490021 3.36466002 26.11689949 0 127 127
9.80731964 6.18702984 26.58469963 9 255 0
10.00959969 6.38958979 26.68799973 40 255 0
10.17329979 6.61973000 26.68479919 38 255 0
9.72618008 5.89999008 26.78800011 69 255 0
9.93811989 6.09505987 26.66049957 32 255 0
10.13599968 6.30049992 26.77319908 65 255 0
10.30340004 6.52823019 26.76110077 61 255 0
9.83782959 5.82219982 26.90959930 105 255 0
10.03950024 6.02360010 26.80960083 76 255 0
10.25430012 6.21672010 26.87770081 95 255 0
10.43290043 6.43710995 26.83880043 84 255 0
10.01299953 5.69707012 26.87129974 94 255 0
10.17969990 5.92504978 26.86109924 91 255 0
10.39809990 6.11631012 26.92090034 108 255 0
10.54640007 6.35579014 26.95350075 118 255 0
10.14169979 5.60652018 26.95100021 117 255 0
10.28230000 5.85269022 27.00320053 133 255 0
10.51109982 6.03603983 27.03689957 142 255 0
10.68640041 6.25841999 27.00709915 133 255 0
10.25500011 5.52743006 27.06760025 151 255 0
10.39480019 5.77338982 27.11949921 167 255 0
10.62300014 5.95653009 27.15379906 177 255 0
10.78619957 6.18560982 27.15069962 176 255 0
10.34809971 5.46314001 27.22929955 199 255 0
10.52169991 5.68406010 27.20159912 191 255 0
10.78149986 5.84652996 27.16629982 180 255 0
10.96160030 6.06655979 27.12800026 169 255 0
10.50500011 5.35153008 27.24230003 203 255 0
10.65979958 5.58691978 27.25869942 208 255 0
10.92420006 5.74681997 27.21570015 195 255 0
11.12139988 5.95698023 27.14270020 174 255 0
10.63099957 5.26281023 27.32729912 228 255 0
10.78569984 5.49827003 27.34359932 233 255 0
11.06680012 5.64718008 27.26689911 210 255 0
11.26490021 5.85741997 27.19420052 189 255 0
10.80809975 5.13628006 27.30060005 220 255 0
10.96370029 5.37329006 27.31690025 225 255 0
11.24269962 5.52574015 27.25040054 205 255 0
11.44219971 5.73697996 27.17810059 184 255 0
10.99419975 5.00305986 27.25909996 208 255 0
11.12209988 5.26195002 27.33580017 231 255 0
11.45310020 5.38146019 27.16720009 180 255 0
11.63329983 5.60794020 27.13850021 172 255 0
11.26749992 4.80538988 27.03960037 143 255 0
11.41040039 5.05999994 27.09009933 158 255 0
11.64400005 5.24998999 27.13010025 170 255 0
11.86489964 5.45369005 27.02440071 139 255 0
11.39490032 4.71563005 27.13279915 171 255 0
11.57559967 4.94387007 27.10600090 163 255 0
11.87520027 5.09190989 27.01889992 137 255 0
12.03219986 5.33906984 27.04179955 144 255 0
11.58909988 4.57648993 27.09110069 158 255 0
11.78419971 4.79741001 27.03890038 143 255 0
12.09090042 4.94386005 26.94519997 115 255 0
12.24489975 5.19621992 26.97649956 124 255 0
11.81879997 4.41120005 26.98439980 127 255 0
12.03800011 4.61935997 26.89019966 99 255 0
12.29049969 4.80637980 26.90839958 105 255 0
12.52289963 5.01252985 26.79619980 71 255 0
12.10280037 4.20594978 26.78030014 67 255 0
12.23279953 4.48253012 26.86350060 91 255 0
12.56379986 4.62016010 26.74020004 55 255 0
12.72119999 4.87833023 26.77140045 65 255 0
12.33759975 4.03705978 26.68149948 38 255 0
12.50920010 4.28862000 26.68880081 40 255 0
12.84010029 4.43172979 26.57640076 7 255 0
12.96249962 4.71709013 26.67429924 35 255 0
12.64140034 3.81738997 26.46150017 0 228 26
12.79790020 4.08610010 26.50200081 0 240 14
13.08240032 4.26574993 26.48349953 0 234 20
13.26270008 4.51880980 26.48130035 0 234 20
12.95349979 3.59166002 26.23830032 0 162 92
13.02110004 3.92934990 26.44420052 0 223 31
13.43970013 4.02345991 26.19619942 0 150 104
13.58549976 4.30603981 26.26020050 0 169 85
13.23760033 3.38670993 26.07810020 0 115 139
13.39480019 3.66737008 26.12639999 0 129 125
13.64929962 3.87882996 26.17760086 0 145 109
13.44579983 3.23752999 26.06159973 0 110 144
13.60410023 3.52024007 26.10960007 0 124 130
13.63630009 3.10139990 26.08069992 0 115 139
13.77610016 3.39903998 26.16099930 0 139 115
10.05620003 6.40434980 26.66230011 32 255 0
10.17570019 6.66200018 26.76689911 63 255 0
9.76955032 5.91617012 26.77260017 65 255 0
9.97078037 6.11906004 26.67169952 35 255 0
10.17199993 6.32263994 26.77490044 65 255 0
10.33539963 6.55298996 26.77120018 64 255 0
9.88858986 5.83339024 26.87660027 95 255 0
10.05420017 6.06073999 26.86580086 92 255 0
10.31659985 6.22215986 26.81699944 77 255 0
10.46510029 6.46223021 26.84910011 87 255 0
9.99948978 5.75663996 26.99950027 131 255 0
10.18309975 5.97047997 26.94409943 115 255 0
10.41559982 6.15150976 26.96769905 122 255 0
10.57880020 6.38134003 26.96400070 121 255 0
10.15680027 5.64516020 27.00779915 134 255 0
10.28530025 5.89895010 27.08609962 157 255 0
10.52840042 6.07184982 27.08359909 157 255 0
10.72280025 6.28187990 27.00900078 134 255 0
10.27359962 5.56394005 27.11540031 166 255 0
10.42800045 5.79909992 27.13139915 170 255 0
10.65590000 5.98264980 27.16530037 180 255 0
10.83080006 6.20458984 27.13509941 171 255 0
10.40069962 5.47490978 27.19779968 190 255 0
10.53950024 5.72099018 27.24889946 205 255 0
10.79459953 5.88600016 27.22190094 197 255 0
10.99429989 6.09312010 27.13920021 172 255 0
10.55809975 5.36334991 27.21129990 194 255 0
10.68150043 5.62160015 27.29730034 219 255 0
10.95339966 5.77618980 27.23640060 201 255 0
11.15429974 5.98380995 27.15410042 177 255 0
10.71199989 5.25440979 27.23559952 201 255 0
10.87129974 5.48869991 27.24259949 203 255 0
11.11250019 5.66610003 27.25289917 206 255 0
11.36489964 5.84314013 27.06660080 151 255 0
10.90579987 5.11571980 27.17499924 183 255 0
11.07460022 5.34630013 27.16460037 180 255 0
11.32209969 5.52275991 27.16749954 181 255 0
11.52219963 5.73539019 27.09469986 160 255 0
11.09720039 4.97899008 27.12579918 169 255 0
11.23840046 5.23152018 27.17600060 183 255 0
11.53339958 5.37810993 27.08510017 157 255 0
11.70549965 5.61142015 27.07309914 153 255 0
11.30210018 4.83220005 27.05360031 148 255 0
11.46549988 5.07249022 27.06049919 149 255 0
11.69509983 5.26621008 27.10880089 163 255 0
11.91600037 5.47044992 27.00259972 133 255 0
11.49619961 4.69347000 27.01020050 135 255 0
11.70750046 4.90293980 26.92289925 109 255 0
11.97900009 5.07351017 26.89579964 101 255 0
12.13249969 5.32555008 26.92670059 110 255 0
11.69159985 4.55384016 26.96949959 123 255 0
11.88759995 4.77675009 26.91670036 107 255 0
12.19589996 4.92492008 26.82309914 80 255 0
12.36880016 5.16820002 26.81999969 79 255 0
11.92249966 4.38795996 26.86400032 91 255 0
12.10779953 4.62249994 26.83690071 83 255 0
12.43239975 4.76326990 26.71990013 49 255 0
12.60729980 5.00929022 26.71689987 48 255 0
12.19040012 4.19483995 26.69470024 41 255 0
12.35630035 4.44836998 26.70989990 46 255 0
12.67109966 4.60009003 26.62030029 20 255 0
12.84790039 4.84884024 26.61739922 19 255 0
12.49660015 3.97347999 26.46299934 0 228 26
12.66559982 4.23163986 26.47800064 0 233 21
12.94869995 4.41101980 26.45770073 0 227 27
13.10939980 4.67516994 26.48819923 0 236 18
12.77110004 3.77565002 26.30299950 0 181 73
12.85620022 4.09800005 26.47599983 0 232 22
13.17350006 4.25685978 26.39909935 0 210 44
13.46800041 4.44019985 26.19729996 0 150 104
13.08030033 3.55233002 26.08959961 0 118 136
13.18579960 3.86707997 26.22850037 0 160 94
13.53190041 4.01393986 26.11300087 0 125 129
13.71660042 4.27414989 26.11039925 0 124 130
13.29249954 3.40067005 26.06240082 0 110 144
13.46829987 3.66905999 26.07710075 0 115 139
13.76150036 3.85639000 26.06250000 0 110 144
13.53829956 3.22423005 25.98110008 0 86 168
13.71599960 3.49541998 25.99570084 0 91 163
13.72970009 3.08792996 26.00110054 0 92 162
13.87479973 3.38398004 26.07250023 0 113 141
9.84570026 6.25576019 26.63489914 24 255 0
10.06149960 6.44945002 26.70100021 44 255 0
10.22449970 6.68000984 26.69669914 42 255 0
9.80716991 5.93861008 26.73119926 53 255 0
10.00489998 6.14462996 26.63879967 25 255 0
10.20650005 6.34900999 26.74150085 56 255 0
10.36989975 6.57999992 26.73730087 54 255 0
9.91965008 5.86124992 26.85330009 88 255 0
10.08880043 6.08657980 26.83300018 83 255 0
10.30679989 6.27799988 26.89119911 100 255 0
10.46580029 6.51037979 26.89590073 101 255 0
10.04889965 5.77120018 26.93169975 112 255 0
10.20349979 6.00678015 26.94729996 116 255 0
10.46609974 6.16815996 26.89909935 102 255 0
10.59860039 6.41814995 26.96610069 121 255 0
10.19589996 5.66780996 26.96710014 122 255 0
10.34700012 5.90666008 26.99150085 129 255 0
10.57960033 6.08849001 27.01539993 136 255 0
10.74279976 6.31894016 27.01119995 135 255 0
10.29080009 5.60344982 27.12809944 169 255 0
10.46389961 5.82532978 27.09930038 161 255 0
10.67640018 6.01990986 27.16799927 181 255 0
10.87090015 6.22966003 27.09320068 159 255 0
10.42189980 5.51192999 27.20170021 191 255 0
10.56040001 5.75825977 27.25230026 206 255 0
10.83119965 5.91302013 27.18959999 187 255 0
11.01469994 6.13073015 27.14150047 173 255 0
10.57940006 5.40057993 27.21529961 195 255 0
10.73400021 5.63701010 27.23060036 199 255 0
10.99440002 5.80057001 27.19549942 189 255 0
11.17479992 6.02163982 27.15649986 177 255 0
10.73340034 5.29186010 27.23959923 202 255 0
10.89239979 5.52635002 27.24609947 204 255 0
11.17039967 5.67961979 27.17749977 184 255 0
11.36460018 5.89407015 27.11249924 165 255 0
10.89159966 5.17999983 27.25729942 207 255 0
11.05130005 5.41543007 27.26370049 209 255 0
11.32649994 5.57184982 27.20520020 192 255 0
11.56410027 5.76034021 27.05389977 148 255 0
11.08250046 5.04379988 27.20779991 192 255 0
11.25990009 5.26949978 27.17959976 184 255 0
11.55459976 5.41627979 27.08830070 157 255 0
11.70479965 5.66319990 27.11879921 166 255 0
11.32390022 4.87002993 27.05789948 148 255 0
