1.77902997 17.47730064 28.03339958 5 255 0
1.91567004 17.68059921 28.02739906 5 255 0
1.44475996 17.09849930 27.42440033 0 237 17
1.38677001 17.43770027 26.39870071 0 198 56
1.85924006 17.42519951 27.76469994 0 249 5
1.97729003 17.64850044 27.64179993 0 245 9
1.59907997 16.99670029 27.52580070 0 240 14
1.55473995 17.32449913 26.53709984 0 204 50
1.94824004 17.36689949 27.52580070 0 240 14
2.08360004 17.57950020 27.49060059 0 240 14
1.77561998 16.88279915 27.75609970 0 249 5
1.41288996 17.08399963 25.83029938 0 177 77
1.69046998 17.23220062 26.51140022 0 202 52
2.11629009 17.24990082 27.73749924 0 249 5
2.21695995 17.48760033 27.49670029 0 240 14
1.84411001 16.82880020 27.41090012 0 237 17
1.95323002 17.05820084 27.22179985 0 229 25
2.28577995 17.13150024 27.98089981 2 255 0
2.42796993 17.32859993 28.01409912 4 255 0
1.97175002 16.74189949 27.37989998 0 235 19
2.22333002 16.87980080 28.04409981 5 255 0
1.93953001 17.06189919 26.32690048 0 195 59
2.35351992 17.08930016 27.58819962 0 243 11
2.49411011 17.29459953 27.59210014 0 243 11
2.13382006 16.63649940 27.55660057 0 242 12
2.33242989 16.80500031 27.92709923 1 255 0
2.06724000 16.97470093 26.24640083 0 192 62
2.46550989 17.01420021 27.46120071 0 238 16
2.62044001 17.20859909 27.56340027 0 242 12
2.27130008 16.54450035 27.59749985 0 243 11
2.47852993 16.70649910 28.04739952 5 255 0
2.22399998 16.86890030 26.35409927 0 196 58
2.60232997 16.92029953 27.50270081 0 240 14
2.78043008 17.09259987 27.79229927 0 251 3
2.36188006 16.47730064 27.33440018 0 234 20
2.60015011 16.62360001 28.01169968 4 255 0
2.32261992 16.80010033 26.06940079 0 186 68
2.78625989 16.79050064 27.91090012 0 255 0
2.93690991 16.97890091 28.02319908 4 255 0
2.52402997 16.37249947 27.54579926 0 241 13
2.72477007 16.53890038 27.99699974 3 255 0
2.44789004 16.71430016 25.95310020 0 181 73
2.83685994 16.76239967 27.29400063 0 232 22
3.02806997 16.92449951 27.72270012 0 248 6
2.63049006 16.29649925 27.37369919 0 235 19
2.76077008 16.51000023 27.29150009 0 232 22
2.89849997 16.72649956 26.69669914 0 210 44
3.08473992 16.90349960 27.06669998 0 223 31
2.73035002 16.22349930 27.13319969 0 226 28
2.95138001 16.38349915 27.78350067 0 250 4
2.95884991 16.69249916 26.01009941 0 183 71
3.34106994 16.69440079 28.29210091 14 255 0
3.10664010 16.91830063 25.97470093 0 182 72
2.79263997 16.16810036 26.55660057 0 204 50
3.13582993 16.26129913 28.28800011 14 255 0
2.86618996 16.42970085 25.90909958 0 180 74
3.08949995 16.60429955 25.91839981 0 180 74
3.46044993 16.61370087 28.25270081 13 255 0
3.24553990 16.82349968 25.96229935 0 182 72
2.84161997 16.11730003 25.79159927 0 175 79
3.26130009 16.17620087 28.30870056 15 255 0
2.99831009 16.33939934 25.82799911 0 177 77
3.44537997 16.33749962 28.20089912 11 255 0
3.57337999 16.53960037 28.13509941 8 255 0
3.18204999 15.92959976 27.65839958 0 246 8
2.98936009 16.01860046 25.85079956 0 177 77
3.38142991 16.09429932 28.28120041 14 255 0
3.14123988 16.24230003 25.84749985 0 177 77
3.53869009 16.27750015 27.85589981 0 253 1
3.68944001 16.46279907 28.03849983 5 255 0
3.31474996 15.84090042 27.71100044 0 248 6
3.48092008 16.02510071 28.02619934 5 255 0
3.65113997 16.20249939 27.69059944 0 247 7
3.81679010 16.37439919 28.08219910 6 255 0
3.43283010 15.75870037 27.61580086 0 244 10
3.26990008 15.82830048 25.84469986 0 177 77
3.59734988 15.94530010 27.93129921 1 255 0
3.78752995 16.10799980 27.82500076 0 252 2
3.94079995 16.28940010 28.08760071 7 255 0
3.54119992 15.68000031 27.39240074 0 236 18
3.75253010 15.84220028 28.32559967 16 255 0
3.93618011 16.00289917 28.18020058 10 255 0
4.06578016 16.20319939 28.11420059 8 255 0
3.67507005 15.59070015 27.45899963 0 238 16
3.86655998 15.76389980 28.21349907 11 255 0
4.03677988 15.93830013 27.79940033 0 251 3
4.18776989 16.12039948 28.09230042 7 255 0
3.79946995 15.50510025 27.40740013 0 236 18
3.97403002 15.68929958 27.97290039 2 255 0
4.16406012 15.85109997 27.83839989 0 252 2
4.06475019 15.93939972 25.88290024 0 179 75
4.31596994 16.02960014 28.21129990 11 255 0
3.92955995 15.41740036 27.43689919 0 237 17
4.10411978 15.60149956 28.08259964 6 255 0
4.28504992 15.76959991 27.74909973 0 249 5
4.43631983 15.94869995 28.16209984 9 255 0
4.05913019 15.33010006 27.46780014 0 238 16
4.24399996 15.50850010 28.43339920 20 255 0
4.42864990 15.66639996 28.25020027 13 255 0
4.55219984 15.87580013 27.93440056 1 255 0
4.18431997 15.24390030 27.42020035 0 237 17
4.35443020 15.43179989 28.18639946 11 255 0
4.53152990 15.60309982 27.60409927 0 243 11
4.67745018 15.78859997 27.99749947 3 255 0
4.31177998 15.15709972 27.41379929 0 237 17
4.45636988 15.35849953 27.58069992 0 243 11
4.62028980 15.56070042 25.88940048 0 179 75
4.79263020 15.72609997 27.41250038 0 237 17
4.43792009 15.07030010 27.36890030 0 234 20
4.56281996 15.28120041 26.81609917 0 214 40
4.75879002 15.46640015 25.88470078 0 179 75
4.91513014 15.66300011 26.66850090 0 208 46
4.56921005 14.98390007 27.49519920 0 240 14
4.67761993 15.19729996 25.91250038 0 180 74
4.89730978 15.37199974 25.88150024 0 179 75
5.04829979 15.59179974 25.95569992 0 181 73
4.68341017 14.89099979 26.84300041 0 215 39
4.81593990 15.10309982 25.90999985 0 180 74
5.03586006 15.27719975 25.91970062 0 180 74
5.18172979 15.48439980 26.55380058 0 204 50
4.80316019 14.78709984 25.88220024 0 179 75
4.95525980 15.00959969 26.12890053 0 188 66
5.16092014 15.17210007 27.80929947 0 252 2
5.17461014 15.18350029 25.84939957 0 177 77
5.31468010 15.39249992 26.60339928 0 206 48
4.94977999 14.72399998 27.46229935 0 238 16
4.94137001 14.69159985 25.82259941 0 177 77
5.09102011 14.91940022 26.48929977 0 201 53
5.28739023 15.08740044 27.68040085 0 246 8
5.31323004 15.08899975 25.86059952 0 177 77
5.44822979 15.30179977 26.59460068 0 205 49
5.07649994 14.64210033 27.65399933 0 246 8
5.22176981 14.83250046 26.83110046 0 214 40
5.41807985 15.00090027 27.44280052 0 237 17
5.59449005 15.21420002 26.15730095 0 189 65
5.20084000 14.56089973 27.80690002 0 252 2
5.34349012 14.75329971 27.41410065 0 237 17
5.54791021 14.91339970 27.35659981 0 234 20
5.69927979 15.11900043 27.03070068 0 222 32
5.33090019 14.46459961 27.48150063 0 239 15
5.48653984 14.65180016 26.77890015 0 213 41
5.66969013 14.82859993 27.53160095 0 241 13
5.82514000 15.03050041 27.13579941 0 226 28
5.45952988 14.37539959 27.41729927 0 237 17
5.61952019 14.56099987 26.75489998 0 212 42
5.79887009 14.74120045 27.47809982 0 239 15
5.96477985 14.94089985 26.94260025 0 219 35
5.57921982 14.29959965 27.67410088 0 246 8
5.74085999 14.48009968 27.04190063 0 222 32
5.93489981 14.65050030 27.30610085 0 232 22
6.09214020 14.85249996 27.01049995 0 221 33
5.70859003 14.20919991 27.58259964 0 243 11
5.85626984 14.40349960 27.37000084 0 235 19
6.06082010 14.56429958 27.35519981 0 234 20
6.22445011 14.76309967 26.98999977 0 220 34
5.84703016 14.10859966 27.32299995 0 233 21
6.01006985 14.29559994 26.89100075 0 216 38
6.16541004 14.48919964 27.72480011 0 248 6
6.32159996 14.68430042 27.45940018 0 238 16
5.97983980 14.01599979 27.24449921 0 230 24
6.14247990 14.20530033 26.88260078 0 216 38
6.31645012 14.39009953 27.37759972 0 235 19
6.48933983 14.58399963 26.96299934 0 219 35
6.08340979 13.95520020 27.67560005 0 246 8
6.26156998 14.12530041 27.07480049 0 224 30
6.51365995 14.26500034 26.51449966 0 202 52
6.67386007 14.47529984 26.35919952 0 197 57
6.22631979 13.85179996 27.43040085 0 237 17
6.37050009 14.05290031 27.36770058 0 234 20
6.58292007 14.20989990 27.27610016 0 231 23
6.85495996 14.36540031 25.88710022 0 179 75
6.47799015 13.64130020 25.77490044 0 174 80
6.62848997 13.86699963 25.80139923 0 176 78
6.84949017 14.04389954 25.82069969 0 176 78
6.92859983 14.29759979 26.54059982 0 204 50
6.59689999 13.56599998 26.04140091 0 185 69
6.74702978 13.78769970 26.04809952 0 185 69
6.98837996 13.94929981 25.83950043 0 177 77
7.08723021 14.19589996 26.33029938 0 195 59
6.67852020 13.52509975 26.68610001 0 209 45
6.86116982 13.71140003 26.30570030 0 195 59
7.09913015 13.87110043 26.11779976 0 187 67
7.20395994 14.11190033 26.50880051 0 202 52
6.82260990 13.42409992 26.58720016 0 205 49
6.89728022 13.69289970 27.27820015 0 231 23
7.15891981 13.82320023 26.80330086 0 213 41
7.28267002 14.04590034 26.97570038 0 220 34
6.97238016 13.31830025 26.45039940 0 200 54
7.01679993 13.61190033 27.37829971 0 235 19
7.15895987 13.81180000 27.89450073 0 255 0
7.30806017 14.00640011 27.79929924 0 251 3
7.07814980 13.25230026 26.73080063 0 210 44
7.14913988 13.52149963 27.36079979 0 234 20
7.33581018 13.69559956 27.51129913 0 240 14
7.46963978 13.90369987 27.55470085 0 242 12
7.21395016 13.15900040 26.72550011 0 210 44
7.27688980 13.43439960 27.38430023 0 235 19
7.47202015 13.60350037 27.46610069 0 238 16
7.62482023 13.80340004 27.38120079 0 235 19
7.37480021 13.04409981 26.52440071 0 203 51
7.40446997 13.34749985 27.40920067 0 237 17
7.59470987 13.51959991 27.52109909 0 240 14
7.74032021 13.72249985 27.48559952 0 239 15
7.50856018 12.95289993 26.55200005 0 204 50
7.53185987 13.26070023 27.43540001 0 237 17
7.66561985 13.46730042 27.91209984 0 255 0
7.80385017 13.66819954 27.90600014 0 255 0
7.63245010 12.87010002 26.64970016 0 207 47
7.66489983 13.16969967 27.42359924 0 237 17
7.88707018 13.32299995 27.33020020 0 234 20
8.00207996 13.54549980 27.49130058 0 240 14
7.78709984 12.76119995 26.53269958 0 203 51
7.81056976 13.06970024 27.33469963 0 234 20
8.00514030 13.24180031 27.41889954 0 237 17
8.14612007 13.44999981 27.42280006 0 237 17
7.94364023 12.65100002 26.41749954 0 199 55
7.87274981 13.02989960 27.76709938 0 250 4
8.19336033 12.79870033 25.80660057 0 176 78
8.12728977 13.15830040 27.47929955 0 239 15
8.26263046 13.36900043 27.51259995 0 240 14
8.06538963 12.56989956 26.52930069 0 203 51
7.99754000 12.94480038 27.79820061 0 251 3
8.33897018 12.69919968 25.80209923 0 176 78
8.18264961 13.11629963 27.90270042 0 255 0
8.32767963 13.31550026 27.86739922 0 254 0
8.33230972 12.36940002 25.78289986 0 175 79
8.13780022 12.84869957 27.74279976 0 249 5
8.48488998 12.59949970 25.79920006 0 175 79
8.69847965 12.78699970 25.87689972 0 178 76
8.84673023 13.01780033 25.91040039 0 180 74
8.34119987 12.38070011 26.55159950 0 204 50
8.23190022 12.78559971 27.94239998 1 255 0
8.53129959 12.57110023 26.33399963 0 195 59
8.76360035 12.73859978 26.28520012 0 194 60
8.99491978 12.91819954 25.89999962 0 179 75
8.48375034 12.28230000 26.54070091 0 204 50
8.69466019 12.45880032 26.22629929 0 192 62
8.85507965 12.67389965 26.53809929 0 204 50
9.11653042 12.83310032 26.01749992 0 183 71
8.67175007 12.14750004 26.29850006 0 195 59
8.74645996 12.42619991 26.68359947 0 209 45
8.90802956 12.63370037 26.95619965 0 219 35
9.08001995 12.83570004 26.84390068 0 215 39
8.80317974 12.05830002 26.35919952 0 197 57
8.59961033 12.53489971 28.06069946 5 255 0
9.04708004 12.21599960 25.92009926 0 180 74
8.96378994 12.59189987 27.33539963 0 234 20
9.17817974 12.76459980 27.02980042 0 222 32
8.86147976 12.02740002 26.76899910 0 212 42
8.72224998 12.45129967 28.09950066 7 255 0
9.19351006 12.11590004 25.92510033 0 180 74
8.96358967 12.58590031 27.93639946 1 255 0
9.09564018 12.79529953 27.96910095 2 255 0
9.08932018 11.86139965 26.36879921 0 197 57
8.86839962 12.35099983 28.03350067 5 255 0
9.36614037 11.99720001 25.81609917 0 176 78
9.17821026 12.44379997 27.59239960 0 243 11
9.32728958 12.64999962 27.56739998 0 242 12
9.21551037 11.77630043 26.45289993 0 200 54
9.00016022 12.26089954 28.03669930 5 255 0
9.50716019 11.90100002 25.85350037 0 177 77
9.36991978 12.31610012 27.36689949 0 234 20
9.56501961 12.50059986 27.16909981 0 227 27
9.28744030 11.73369980 26.76849937 0 212 42
9.11373997 12.18369961 28.11809921 8 255 0
9.65487957 11.80000019 25.86359978 0 178 76
9.43229961 12.27070045 27.67099953 0 246 8
9.60426998 12.46389961 27.55990028 0 242 12
9.51564026 11.56840038 26.41449928 0 198 56
9.26202011 12.08189964 28.05699921 5 255 0
9.81939983 11.68710041 25.80850029 0 176 78
9.47570992 12.23750019 28.03240013 5 255 0
9.60746002 12.44849968 28.06480026 6 255 0
9.69025040 11.44540024 26.30249977 0 195 59
9.97774982 11.57870007 25.78400040 0 175 79
9.74664021 12.05900002 27.52630043 0 240 14
10.03800011 12.18719959 26.99670029 0 221 33
9.80605984 11.36820030 26.43070030 0 199 55
10.12930012 11.47500038 25.78989983 0 175 79
9.88881016 11.96269989 27.51869965 0 240 14
10.21140003 12.07330036 26.89559937 0 217 37
9.99285984 11.23600006 26.28470039 0 194 60
10.20639992 11.42399979 26.07279968 0 186 68
9.91843987 11.93859959 27.91069984 0 255 0
10.08489990 12.13389969 27.82920074 0 252 2
10.11540031 11.15359974 26.38730049 0 198 56
10.17119980 11.45199966 26.74360085 0 211 43
10.04209995 11.85429955 27.96190071 2 255 0
10.24600029 12.02760029 27.75790024 0 249 5
10.15779972 11.13280010 26.77389908 0 213 41
10.32229996 11.34850025 26.73310089 0 210 44
10.17099953 11.76650047 27.99559975 3 255 0
10.80990028 11.35499954 25.86730003 0 178 76
10.57129955 11.82489967 27.16139984 0 227 27
10.08150005 11.20259953 27.55480003 0 242 12
10.42660046 11.27799988 26.88419914 0 216 38
10.81509972 11.34650040 26.35969925 0 197 57
10.62899971 11.77890015 27.44319916 0 237 17
10.43760014 10.94050026 26.83300018 0 214 40
10.58040047 11.17259979 26.86739922 0 216 38
10.89369965 11.29090023 26.59819984 0 206 48
10.66779995 11.74440002 27.77169991 0 250 4
10.71949959 10.73600006 26.39789963 0 198 56
10.73490047 11.06669998 26.85250092 0 215 39
11.00860023 11.21189976 26.71559906 0 210 44
10.82970047 11.63720036 27.71739960 0 248 6
10.52859974 10.89210033 27.50349998 0 240 14
10.89000034 10.96039963 26.83939934 0 215 39
11.12530041 11.13169956 26.82480049 0 214 40
11.10079956 11.46500015 27.34919930 0 234 20
10.74730015 10.73579979 27.27669907 0 231 23
10.96949959 10.90719986 27.06030083 0 223 31
11.19349957 11.08310032 27.07399940 0 224 30
11.12800026 11.43789959 27.69840050 0 247 7
10.95139980 10.59070015 27.10869980 0 225 29
11.10239983 10.81649971 27.11490059 0 225 29
11.36190033 10.96949959 27.02790070 0 222 32
11.21339989 11.37629986 27.87150002 0 254 0
10.99380016 10.56830025 27.43190002 0 237 17
11.24120045 10.72159958 27.15259933 0 227 27
11.51819992 10.86369991 27.02079964 0 222 32
11.65120029 11.10340023 27.07990074 0 224 30
11.05430031 10.53190041 27.69039917 0 247 7
11.50360012 10.54010010 26.84309959 0 215 39
11.75920010 10.70279980 26.78660011 0 213 41
11.68099976 11.07509995 27.41340065 0 237 17
11.19890022 10.43179989 27.70190048 0 247 7
11.71689987 10.04150009 26.23929977 0 192 62
11.79080009 10.34130001 26.48290062 0 201 53
11.80860043 10.66650009 27.07620049 0 224 30
11.68190002 11.06449986 27.80999947 0 252 2
11.51889992 10.19989967 27.23250008 0 230 24
11.93140030 10.24520016 26.53739929 0 204 50
11.73550034 10.71020031 27.67449951 0 246 8
-2.66476989 20.93680000 28.02289963 4 255 0
-3.51749992 21.57539940 26.14389992 0 189 65
-2.46754003 20.79739952 28.10530090 8 255 0
-3.34942007 21.45870018 26.12089920 0 188 66
-2.30651999 20.68510056 28.11149979 8 255 0
-3.19316006 21.35099983 26.07369995 0 186 68
-3.13932991 20.94630051 26.18320084 0 190 64
-2.11986995 20.55340004 28.18160057 10 255 0
-2.99553990 21.21209908 26.12540054 0 188 66
-2.97245002 20.83189964 26.16699982 0 189 65
-2.13063002 20.57029915 27.78459930 0 250 4
-2.83257008 21.09919930 26.10009956 0 187 67
-2.02322006 20.16379929 28.03240013 5 255 0
-2.81339002 20.72299957 26.13509941 0 188 66
-2.65172005 20.97279930 26.12129974 0 188 66
-2.02589011 19.84370041 28.19969940 11 255 0
-1.80514002 20.01269913 28.18980026 11 255 0
-1.68729997 20.25390053 28.11280060 8 255 0
-2.50390005 20.87140083 26.06439972 0 186 68
-1.63643003 19.89649963 28.23360062 12 255 0
-1.57859004 20.18099976 28.00359917 3 255 0
-1.57788002 19.85840034 28.00000000 3 255 0
-1.49976003 20.13069916 27.81410027 0 252 2
-2.45588994 20.12080002 25.95680046 0 181 73
-1.35083997 19.70079994 28.20120049 11 255 0
-2.16861010 20.28109932 26.05380058 0 185 69
-1.36141002 20.03540039 27.77899933 0 250 4
-2.28963995 20.00810051 25.95140076 0 181 73
-1.20509005 19.60079956 28.19669914 11 255 0
-2.01748991 20.17779922 26.01339912 0 183 71
-1.07431996 19.82679939 28.15480042 9 255 0
-2.07927990 19.86630058 26.06640053 0 186 68
-1.13611996 19.55540085 27.98399925 2 255 0
-1.86967003 20.07679939 25.96549988 0 182 72
-1.04588997 19.81509972 27.82320023 0 252 2
-1.93171000 19.76600075 26.01969910 0 184 70
-0.97346199 19.44339943 28.02809906 5 255 0
-1.68918002 19.95260048 26.01110077 0 183 71
-0.94015402 19.74469948 27.70170021 0 247 7
-1.76751995 19.65469933 26.02059937 0 184 70
-0.81192797 19.33219910 28.07439995 6 255 0
-1.52262998 19.83819962 26.02210045 0 184 70
-0.60628599 19.49939919 28.25279999 13 255 0
-1.61679995 19.55229950 25.98660088 0 183 71
-0.68897998 19.24839973 28.01189995 4 255 0
-0.60931599 19.51239967 27.81229973 0 252 2
-1.47560000 19.45619965 25.92659950 0 180 74
-0.66025400 19.23189926 27.66340065 0 246 8
-1.21604002 19.62840080 25.97629929 0 182 72
-0.55289203 19.48010063 27.53730011 0 241 13
-1.25038004 19.30470085 26.11890030 0 188 66
-0.58512402 19.18239975 27.44440079 0 237 17
-1.05404997 19.51720047 25.98390007 0 183 71
-0.51620901 19.46339989 27.18770027 0 228 26
-1.13757002 19.22730064 25.97890091 0 182 72
-0.36129600 19.02669907 27.69230080 0 247 7
-0.85471201 19.37929916 26.11490059 0 187 67
-0.53741300 19.49189949 26.63220024 0 207 47
-0.48114601 18.48710060 28.00270081 3 255 0
-1.16270995 18.89769936 25.90880013 0 180 74
-0.35323000 18.70840073 27.95289993 2 255 0
-0.97579598 19.11770058 25.98950005 0 183 71
-0.13293400 18.86750031 27.97179985 2 255 0
-0.70907700 19.27980042 26.08009911 0 186 68
0.02574250 19.06690025 28.02219963 4 255 0
-0.43734500 19.42700005 26.45859909 0 201 53
-0.39638799 18.42630005 27.82489967 0 252 2
-0.18887500 18.59749985 28.02809906 5 255 0
-0.81174302 19.00650024 26.01140022 0 183 71
-0.00092173 18.77729988 27.94470024 1 255 0
0.15174299 18.98080063 27.97640038 2 255 0
-0.40250999 18.41959953 27.34650040 0 234 20
-0.08543400 18.52650070 27.90789986 0 255 0
-0.65978301 18.90329933 25.99769974 0 183 71
0.05772590 18.73970032 27.66460037 0 246 8
0.21997599 18.93989944 27.72480011 0 248 6
-0.15225101 18.25939941 27.69729996 0 247 7
-0.02207470 18.48170090 27.64699936 0 245 9
0.20477900 18.63870049 27.68700027 0 247 7
0.43533900 18.78380013 28.00250053 3 255 0
0.08976550 18.10460091 28.04240036 5 255 0
0.12545700 18.38179970 27.67009926 0 246 8
0.43369001 18.47879982 28.01449966 4 255 0
0.59127402 18.67410088 28.07500076 6 255 0
0.13450301 18.06719971 27.71719933 0 248 6
0.29326701 18.26860046 27.77099991 0 250 4
0.47663501 18.45269966 27.66090012 0 246 8
0.65577900 18.63660049 27.79770088 0 251 3
0.26787201 17.97699928 27.69639969 0 247 7
0.40045300 18.19499969 27.65509987 0 246 8
0.62205398 18.35280037 27.68840027 0 247 7
0.81376302 18.52519989 27.88269997 0 254 0
0.44222900 17.86280060 27.82970047 0 252 2
0.54377401 18.09790039 27.67390060 0 246 8
0.75721902 18.26029968 27.67930031 0 246 8
0.94491500 18.43499947 27.86459923 0 253 1
0.58684301 17.76609993 27.86009979 0 253 1
0.76628298 17.94910049 28.01020050 4 255 0
0.95671600 18.12129974 27.94020081 1 255 0
1.07821000 18.34309959 27.85759926 0 253 1
0.69183701 17.69269943 27.73870087 0 249 5
0.88256699 17.86969948 27.93709946 1 255 0
0.98216701 18.10820007 27.47360039 0 239 15
1.19833004 18.26180077 27.79439926 0 251 3
0.77703297 17.63050079 27.53160095 0 241 13
0.83313799 17.89789963 27.16270065 0 227 27
1.08336997 18.04039955 27.31450081 0 233 21
1.25850999 18.22900009 27.45310020 0 238 16
0.86718798 17.56520081 27.33460045 0 234 20
0.96036899 17.81110001 27.10960007 0 225 29
1.16138005 17.98959923 27.04030037 0 222 32
1.31522000 18.19969940 27.07299995 0 224 30
1.07971001 17.42950058 27.66029930 0 246 8
0.71354401 17.63940048 26.06520081 0 186 68
1.04736996 17.75040054 26.87400055 0 216 38
1.49848998 17.74990082 27.98600006 3 255 0
1.18627000 17.97769928 26.49530029 0 201 53
1.35763001 18.18280029 26.59600067 0 206 48
1.23563004 17.32659912 27.75650024 0 249 5
0.83369899 17.55559921 25.94459915 0 181 73
1.12916994 17.69289970 26.60020065 0 206 48
1.64154994 17.65139961 28.04500008 5 255 0
1.21872997 17.96059990 25.94949913 0 181 73
1.38783002 18.17679977 26.02140045 0 184 70
1.36076999 17.24139977 27.71870041 0 248 6
0.99686497 17.44729996 26.01939964 0 183 71
1.54682004 17.41850090 27.93889999 1 255 0
1.24664998 17.61230087 26.48209953 0 201 53
1.75705004 17.57309914 27.96960068 2 255 0
1.89441001 17.77729988 27.96349907 2 255 0
1.43994999 17.18190002 27.45840073 0 238 16
1.57407999 17.39629936 27.41629982 0 237 17
1.82067001 17.53300095 27.61280060 0 244 10
1.95374000 17.74670029 27.56780052 0 243 11
1.59050000 17.08209991 27.53980064 0 241 13
1.70911002 17.30459976 27.41959953 0 237 17
1.92236996 17.46500015 27.44160080 0 237 17
2.08189011 17.65909958 27.54290009 0 241 13
1.70596004 17.00200081 27.44709969 0 237 17
1.85813999 17.20389938 27.50250053 0 240 14
2.12521005 17.32239914 27.84810066 0 253 1
2.25647998 17.53210068 27.80279922 0 251 3
1.83331001 16.91519928 27.41419983 0 237 17
2.09172010 17.04910088 28.07670021 6 255 0
1.78901994 17.24279976 26.35379982 0 196 58
2.24643993 17.23990059 27.79710007 0 251 3
2.40110993 17.43009949 27.89870071 0 255 0
1.99024999 16.81229973 27.54940033 0 242 12
2.22111011 16.96120071 28.08569908 7 255 0
1.91600001 17.15589905 26.27140045 0 193 61
2.32826996 17.18689919 27.49220085 0 240 14
2.49315000 17.37319946 27.65290070 0 246 8
2.12347007 16.72249985 27.55890083 0 242 12
2.32804990 16.88759995 27.95849991 2 255 0
2.04077005 17.07029915 26.17060089 0 189 65
2.45528007 17.10029984 27.46290016 0 238 16
2.63978004 17.26930046 27.77129936 0 250 4
2.23729992 16.64299965 27.45170021 0 238 16
2.46977997 16.79179955 28.04870033 5 255 0
2.16827011 16.98299980 26.08090019 0 186 68
2.64380002 16.96750069 27.86829948 0 254 0
2.80156994 17.15150070 28.01959991 4 255 0
2.36004996 16.55859947 27.39489937 0 236 18
2.59276009 16.70800018 28.02239990 4 255 0
2.29970002 16.89310074 26.01210022 0 183 71
2.72973990 16.91180038 27.55640030 0 242 12
2.89740992 17.09199905 27.77700043 0 250 4
2.50939012 16.46039963 27.51700020 0 240 14
2.69408011 16.63780022 27.83950043 0 252 2
2.42917991 16.80439949 25.92490005 0 180 74
2.79746008 16.87019920 27.06719971 0 223 31
2.96022010 17.06329918 27.22890091 0 229 25
2.58678007 16.39900017 27.13689995 0 226 28
2.68913007 16.63400078 26.82729912 0 214 40
2.80833006 16.87260056 26.04409981 0 185 69
3.20911002 16.86470032 28.28260040 14 255 0
2.94706988 17.10659981 25.92939949 0 180 74
2.68899989 16.32419968 26.90559959 0 217 37
2.98234010 16.44359970 28.10960007 8 255 0
2.72062993 16.60659981 25.99200058 0 183 71
2.93246007 16.78910065 25.90110016 0 180 74
3.33759999 16.77519989 28.33049965 16 255 0
3.09458995 17.00359917 25.99419975 0 183 71
2.70335007 16.29159927 25.94219971 0 181 73
3.13825011 16.33939934 28.37599945 17 255 0
2.85266995 16.51619911 25.91889954 0 180 74
3.07090998 16.69470024 25.87820053 0 178 76
3.44414997 16.70660019 28.16180038 9 255 0
2.82875991 16.20339966 25.81100082 0 176 78
3.25776005 16.25790024 28.34679985 17 255 0
2.98558998 16.42530060 25.84720039 0 177 77
3.40651011 16.44619942 27.88139915 0 254 0
3.55831003 16.63120079 28.05369949 5 255 0
3.17002010 16.01560020 27.63689995 0 245 9
3.36242008 16.18540001 28.16990089 10 255 0
3.51725006 16.37210083 27.71450043 0 248 6
3.68530011 16.54330063 28.08569908 7 255 0
3.29796004 15.92889977 27.63929939 0 245 9
3.45918989 16.11750031 27.88470078 0 254 0
3.65247011 16.27879906 27.81719971 0 252 2
3.81095004 16.45649910 28.10910034 8 255 0
3.42385006 15.84300041 27.62319946 0 244 10
3.60320997 16.02090073 28.09760094 7 255 0
3.79208994 16.18169975 28.00099945 3 255 0
3.93344998 16.37299919 28.09410095 7 255 0
3.53153992 15.76459980 27.39940071 0 236 18
3.74562001 15.92560005 28.33219910 16 255 0
3.90992999 16.10210037 27.90749931 0 255 0
3.77348995 16.21459961 25.90530014 0 180 74
4.05245018 16.29350090 28.02059937 4 255 0
3.66554999 15.67510033 27.46549988 0 238 16
3.84846997 15.85369968 28.07019997 6 255 0
4.02415991 16.02580070 27.73550034 0 249 5
4.18509007 16.19829941 28.18759918 11 255 0
3.79267001 15.58850002 27.45339966 0 238 16
3.95824003 15.77740002 27.85899925 0 253 1
4.15523005 15.93529987 27.83390045 0 252 2
4.30838013 16.11339951 28.20649910 11 255 0
3.91987991 15.50170040 27.44249916 0 237 17
4.09926987 15.68340015 28.13780022 8 255 0
4.28340006 15.84720039 27.90379906 0 255 0
4.41785002 16.04730034 27.87739944 0 254 0
4.06118011 15.41119957 27.67259979 0 246 8
4.23418999 15.59319973 28.37829971 17 255 0
4.39796019 15.77140045 27.65550041 0 246 8
4.54262018 15.96170044 27.88879967 0 255 0
4.19088984 15.32470036 27.74440002 0 249 5
4.32695007 15.52530003 27.73130035 0 249 5
4.50614977 15.70300007 27.09869957 0 225 29
4.66571999 15.87880039 27.84160042 0 252 2
4.29484987 15.24219990 27.25819969 0 231 23
4.43550014 15.44799995 27.26499939 0 231 23
4.60624981 15.64630032 25.89319992 0 179 75
4.77933979 15.81840038 27.19610023 0 228 26
4.42196989 15.15460014 27.21269989 0 229 25
4.53506994 15.37290001 26.26000023 0 193 61
4.74467993 15.55189991 25.88800049 0 179 75
4.89615011 15.77250004 25.92200089 0 180 74
4.54495001 15.06589985 27.00869942 0 221 33
4.66149998 15.28359985 25.82570076 0 177 77
4.88315010 15.45750046 25.88430023 0 179 75
5.03436995 15.67819977 25.91830063 0 180 74
4.64954996 14.96679974 25.85619926 0 177 77
4.80214977 15.18850040 25.94269943 0 181 73
5.02148008 15.36369991 25.83200073 0 177 77
5.16801977 15.56159973 26.87579918 0 216 38
4.81227016 14.89400005 27.43429947 0 237 17
4.94131994 15.09469986 26.09119987 0 186 68
5.15205002 15.25520039 27.84119987 0 252 2
5.16022015 15.26879978 25.86120033 0 178 76
5.28941011 15.45670033 27.70479965 0 247 7
4.93988991 14.80790043 27.47419930 0 239 15
5.07837009 15.00510025 26.62109947 0 207 47
5.28117990 15.17119980 27.42180061 0 237 17
5.44855022 15.39500046 25.94589996 0 181 73
5.06715012 14.72910023 27.80540085 0 251 3
5.20593977 14.92380047 27.41230011 0 237 17
5.41244984 15.08370018 27.21380043 0 229 25
5.56017017 15.29230022 26.94759941 0 219 35
5.19439983 14.63239956 27.39809990 0 236 18
5.34482002 14.82330036 26.61510086 0 207 47
5.53540993 14.99759960 27.44700050 0 237 17
5.69197989 15.20320034 26.92099953 0 218 36
5.32356977 14.54139996 27.28219986 0 231 23
5.47606993 14.73449993 26.70919991 0 210 44
5.65601015 14.91349983 27.65150070 0 246 8
5.79929018 15.11460018 27.50530052 0 240 14
5.45028019 14.45699978 27.36750031 0 234 20
5.60370016 14.64869976 26.88459969 0 216 38
5.80179977 14.81890011 27.15789986 0 227 27
5.96302986 15.02340031 26.74209976 0 211 43
5.56765985 14.38580036 27.74370003 0 249 5
5.70478010 14.58580017 27.73049927 0 249 5
5.94716978 14.72299957 26.82579994 0 214 40
6.08535004 14.93519974 26.92950058 0 218 36
5.70572996 14.28279972 27.38220024 0 235 19
5.87214994 14.46459961 26.76000023 0 212 42
6.04718018 14.64920044 27.41370010 0 237 17
6.21813011 14.84549999 26.90850067 0 217 37
5.84014988 14.18719959 27.23189926 0 230 24
5.99522018 14.38189983 26.94930077 0 219 35
6.17334986 14.56299973 27.44370079 0 237 17
6.31368017 14.76669979 27.42740059 0 237 17
5.96043015 14.10929966 27.41230011 0 237 17
6.12768984 14.29139996 26.93040085 0 218 36
6.36673021 14.44040012 26.49799919 0 202 52
6.50780010 14.65750027 26.57169914 0 204 50
6.06795979 14.04440022 27.77309990 0 250 4
6.20359993 14.24569988 27.78989983 0 251 3
6.50072002 14.34899998 26.51140022 0 202 52
6.64799023 14.56400013 26.50530052 0 202 52
6.19275999 13.95930004 27.78619957 0 251 3
6.32006979 13.82450008 25.80489922 0 176 78
6.40588999 14.10000038 26.72750092 0 210 44
6.56547022 14.29679966 27.35239983 0 234 20
6.65978003 14.52029991 27.85370064 0 253 1
6.84027004 14.44989967 25.88319969 0 179 75
6.46119022 13.72749996 25.79109955 0 175 79
6.60697985 13.95660019 25.87719917 0 178 76
6.83806992 14.12639999 25.77669907 0 174 80
6.96984005 14.35910034 25.98950005 0 183 71
6.54934978 13.68299961 26.45479965 0 200 54
6.71181011 13.88790035 26.28240013 0 194 60
6.97334003 14.03369999 25.83480072 0 177 77
7.06950998 14.28149986 26.36529922 0 197 57
6.67851019 13.59640026 26.53280067 0 203 51
6.75023985 13.86919975 27.33390045 0 234 20
7.06073999 13.96940041 26.34090042 0 196 58
7.13684988 14.21969986 26.97999954 0 220 34
6.82333994 13.49470043 26.43359947 0 199 55
6.82792997 13.81980038 27.84880066 0 253 1
7.03098011 13.66670036 25.84490013 0 177 77
7.07603979 13.94849968 27.42250061 0 237 17
7.22661018 14.14939976 27.33699989 0 234 20
6.95077991 13.40950012 26.52429962 0 203 51
6.99307013 13.70440006 27.49200058 0 240 14
7.17832994 13.87670040 27.65139961 0 246 8
7.30375004 14.08609962 27.75410080 0 249 5
7.07599020 13.32600021 26.62610054 0 207 47
7.11986017 13.61789989 27.51350021 0 240 14
7.34436989 13.76659966 27.35689926 0 234 20
7.48497009 13.97369957 27.36059952 0 234 20
7.22726011 13.21899986 26.49200058 0 201 53
7.26112986 13.52070045 27.41769981 0 237 17
7.46679020 13.68270016 27.42009926 0 237 17
7.61835003 13.88379955 27.34480095 0 234 20
7.38064003 13.11050034 26.35969925 0 197 57
7.37296009 13.44530010 27.56049919 0 242 12
7.56458998 13.61390018 27.65229988 0 246 8
7.71059990 13.81449986 27.60659981 0 243 11
7.49503994 13.03629971 26.54459953 0 204 50
7.51013994 13.35109997 27.50720024 0 240 14
7.72710991 13.50549984 27.43210030 0 237 17
7.83655024 13.72850037 27.63279915 0 245 9
7.63404989 12.94050026 26.53370094 0 203 51
7.62533998 13.27309990 27.61289978 0 244 10
7.86049986 13.41489983 27.42060089 0 237 17
8.01268959 13.61660004 27.35540009 0 234 20
7.77768993 12.84080029 26.49489975 0 201 53
7.80535984 13.14770031 27.28730011 0 231 23
7.99424982 13.32400036 27.41049957 0 237 17
8.13027000 13.53479958 27.44359970 0 237 17
7.93406010 12.73050022 26.37919998 0 198 56
7.85172987 13.11979961 27.82749939 0 252 2
8.18391991 12.87800026 25.75790024 0 174 80
8.06756973 13.27089977 27.75469971 0 249 5
8.40186024 13.06210041 25.81430054 0 176 78
8.20261002 13.47719955 27.77790070 0 250 4
8.17687988 12.54829979 25.73679924 0 173 81
7.98758984 13.02659988 27.78949928 0 251 3
8.32973957 12.77830029 25.75289917 0 174 80
8.55300999 12.95969963 25.78070068 0 174 80
8.42284012 13.34080029 27.30060005 0 232 22
8.27700043 12.48569965 26.00709915 0 183 71
8.09675026 12.95279980 27.90950012 0 255 0
8.42784977 12.71310043 26.02319908 0 184 70
8.65184021 12.89009953 26.03199959 0 184 70
8.84856987 13.09189987 25.81139946 0 176 78
8.31031036 12.47770023 26.63879967 0 207 47
8.53658962 12.64000034 26.21610069 0 191 63
8.75870037 12.81560040 26.22540092 0 192 62
8.99532986 12.99279976 25.81040001 0 176 78
8.50006008 12.34049988 26.36440086 0 197 57
8.62240028 12.58339977 26.51679993 0 203 51
8.81182003 12.77530003 26.67250061 0 208 46
8.97237015 12.98750019 26.61800003 0 207 47
8.66631031 12.22299957 26.23839951 0 192 62
8.49804020 12.67790031 27.85729980 0 253 1
8.89484024 12.39239979 25.85619926 0 177 77
8.88733959 12.72109985 26.98340034 0 220 34
9.00796032 12.95090008 27.10359955 0 225 29
8.71770000 12.19859982 26.70579910 0 210 44
8.60017014 12.60900021 28.00130081 3 255 0
9.05531025 12.28209972 25.79129982 0 175 79
8.88269997 12.71800041 27.64310074 0 245 9
9.00619984 12.93620014 27.72419930 0 248 6
8.90769958 12.06190014 26.46669960 0 201 53
8.72115993 12.52649975 28.04949951 5 255 0
9.21080017 12.17539978 25.75729942 0 174 80
8.95384026 12.66699982 27.92449951 0 255 0
9.07705975 12.88140011 27.99570084 3 255 0
9.07470036 11.94410038 26.35580063 0 196 58
8.85239983 12.43669987 28.05060005 5 255 0
9.35000038 12.08049965 25.80240059 0 176 78
9.29559040 12.44330025 27.03039932 0 222 32
9.43519974 12.66399956 27.06310081 0 223 31
9.19682980 11.86229992 26.45870018 0 201 53
9.00154972 12.33399963 27.97620010 2 255 0
9.51533985 11.96679974 25.73340034 0 173 81
9.37693977 12.38570023 27.27659988 0 231 23
9.57458973 12.56989956 27.06889915 0 223 31
9.28925991 11.80379963 26.68759918 0 209 45
9.12475967 12.25000000 28.01889992 4 255 0
9.66606998 11.86359978 25.73369980 0 173 81
9.37147999 12.38399982 27.85880089 0 253 1
9.50706959 12.59469986 27.88159943 0 254 0
9.52138042 11.63479996 26.31369972 0 195 59
9.25469017 12.16110039 28.03420067 5 255 0
9.81480026 11.76179981 25.74530029 0 174 80
9.57168961 12.25039959 27.60740089 0 243 11
9.71967983 12.45890045 27.59199905 0 243 11
9.65653992 11.54259968 26.36370087 0 197 57
9.39678001 12.06359959 28.00309944 3 255 0
9.96129990 11.66160011 25.76810074 0 174 80
9.81118965 12.09140015 27.22550011 0 229 25
10.12950039 12.20839977 26.59980011 0 206 48
9.92586040 11.34529972 25.88170052 0 179 75
9.52970982 11.97259998 28.01189995 4 255 0
10.11279964 11.55790043 25.77350044 0 174 80
9.84640026 12.06379986 27.61759949 0 244 10
10.00599957 12.26700020 27.56419945 0 242 12
9.93813038 11.34920025 26.42029953 0 199 55
9.81328011 11.77460003 27.46179962 0 238 16
9.88963032 12.03129959 27.96179962 2 255 0
10.03079987 12.24030018 27.96540070 2 255 0
10.24520016 11.12329960 25.83079910 0 177 77
9.81188011 11.77900028 27.97719955 2 255 0
10.21249962 11.49470043 26.52820015 0 203 51
10.13029957 11.87129974 27.60569954 0 243 11
10.29170036 12.07530022 27.55270004 0 242 12
9.96664047 11.35190010 27.39900017 0 236 18
10.31110001 11.42829990 26.70649910 0 210 44
10.62570000 11.54609966 26.41440010 0 198 56
10.52429962 11.92640018 27.25720024 0 231 23
10.16889954 11.20709991 27.19000053 0 228 26
10.46549988 11.32240009 26.68790054 0 209 45
10.76010036 11.45440006 26.47279930 0 201 53
10.54370022 11.90330029 27.66060066 0 246 8
10.43760014 11.01150036 26.76819992 0 212 42
10.60070038 11.23009968 26.73679924 0 211 43
10.87059975 11.37819958 26.60750008 0 206 48
10.64210033 11.83380032 27.80080032 0 251 3
10.46259975 11.00349998 27.18309975 0 228 26
10.77330017 11.11130047 26.66550064 0 208 46
10.97060013 11.30889988 26.77109909 0 212 42
10.96980000 11.62769985 27.24169922 0 230 24
10.51669979 10.97290039 27.48530006 0 239 15
10.92059994 11.01039982 26.68040085 0 209 45
11.08699989 11.22889996 26.87960052 0 216 38
11.07619953 11.55319977 27.36720085 0 234 20
10.83180046 10.74250031 26.95120049 0 219 35
10.96840000 10.97970009 27.00359917 0 221 33
11.18050003 11.16399956 27.05410004 0 223 31
11.09119987 11.53359985 27.75320053 0 249 5
10.95330048 10.66030025 27.04269981 0 222 32
11.11089993 10.88220024 27.03019905 0 222 32
11.33590031 11.05869961 27.04439926 0 222 32
11.38000011 11.34990025 27.35300064 0 234 20
10.89540005 10.71440029 27.67029953 0 246 8
11.31980038 10.73789978 26.86470032 0 216 38
11.47550011 10.96370029 27.08259964 0 224 30
11.60130024 11.20629978 27.15999985 0 227 27
11.09300041 10.57400036 27.52330017 0 240 14
11.63389969 10.16359997 25.94289970 0 181 73
11.73460007 10.44849968 26.12330055 0 188 66
11.63840008 10.85350037 27.05820084 0 223 31
11.60060024 11.19659996 27.57550049 0 243 11
11.44089985 10.31999969 26.95809937 0 219 35
11.80860043 10.39939976 26.36899948 0 197 57
11.75450039 10.77379990 27.16370010 0 227 27
11.66399956 11.14859962 27.80699921 0 252 2
11.47959995 10.30029964 27.28370094 0 231 23
11.91639996 10.32629967 26.51440048 0 202 52
-2.74815989 21.05559921 28.13940048 8 255 0
-2.60183001 20.95439911 28.10670090 8 255 0
-3.51887012 21.63859940 26.08849907 0 186 68
-2.41674995 20.82419968 28.16329956 10 255 0
-3.34642005 21.51880074 26.07390022 0 186 68
-3.36988997 21.16699982 26.00510025 0 183 71
-2.26752996 20.72080040 28.14340019 9 255 0
-3.18974996 21.41080093 26.02650070 0 184 70
-3.13964009 21.00810051 26.12709999 0 188 66
-2.12614989 20.62319946 28.10779953 8 255 0
-3.01048994 21.28590012 26.03380013 0 184 70
-2.94204998 20.87210083 26.18160057 0 190 64
-2.07732010 20.59510040 27.85219955 0 253 1
-2.84308004 21.16979980 26.01689911 0 183 71
-2.00668001 20.21599960 28.01149940 4 255 0
-2.80531001 20.77890015 26.09630013 0 186 68
-1.83633006 20.42270088 28.05940056 5 255 0
-2.66153002 21.04310036 26.03770065 0 184 70
-1.98670995 19.88080025 28.23240089 12 255 0
-1.85031998 20.10880089 28.01659966 4 255 0
-2.67161989 20.68799973 26.00349998 0 183 71
-1.66674995 20.30389977 28.10050011 7 255 0
-2.48447990 20.91970062 26.05200005 0 185 69
-1.85371995 19.79039955 28.18569946 11 255 0
-1.64081001 19.96389961 28.15850067 9 255 0
-1.50883996 20.19370079 28.11689949 8 255 0
-1.66973996 19.66650009 28.26659966 14 255 0
-2.57767010 20.26469994 26.01539993 0 183 71
-1.63457000 19.96260071 27.78919983 0 251 3
-1.49967003 20.19599915 27.74749947 0 249 5
-2.44332004 20.17309952 25.92659950 0 180 74
-1.43691003 19.82609940 27.90800095 0 255 0
-1.34389997 20.08760071 27.75740051 0 249 5
-2.26275992 20.05109978 25.95730019 0 181 73
-1.17709005 19.64559937 28.20249939 11 255 0
-1.04312003 19.86910057 28.16950035 10 255 0
-2.09696007 19.93880081 25.95389938 0 181 73
-1.09821999 19.59309959 28.01709938 4 255 0
-1.09276998 19.91650009 27.61879921 0 244 10
-1.90132999 19.80690002 26.03479958 0 184 70
-0.98456800 19.51589966 27.92379951 0 255 0
-0.88063800 19.76510048 27.79890060 0 251 3
-1.76689005 19.71529961 25.95310020 0 181 73
-0.75833601 19.35899925 28.15379906 9 255 0
-0.65292603 19.60149956 28.03750038 5 255 0
-1.61561000 19.61260033 25.91880035 0 180 74
-0.63591099 19.27560043 28.09160042 7 255 0
-0.54184502 19.52689934 27.93790054 1 255 0
-1.42314005 19.48290062 26.00659943 0 183 71
-0.56197900 19.22669983 27.88229942 0 254 0
-0.51320702 19.51560020 27.57990074 0 243 11
-1.25727999 19.37059975 26.02269936 0 184 70
-0.57222903 19.23760033 27.40360069 0 236 18
-0.53809500 19.54590034 27.03510094 0 222 32
-1.28907001 19.04459953 25.93260002 0 180 74
-1.09213996 19.25889969 26.04080009 0 185 69
-0.54968101 19.22540092 27.00740051 0 221 33
-0.27387601 19.35390091 27.41220093 0 237 17
-1.12624002 18.93560028 25.94300079 0 181 73
-0.30417699 18.73990059 28.02429962 5 255 0
-0.96040797 19.16900063 25.95800018 0 181 73
-0.59613103 19.26250076 26.36680031 0 197 57
0.05111070 19.11429977 28.01840019 4 255 0
-0.42667800 19.48390007 26.40789986 0 198 56
-0.34421799 18.45689964 27.90600014 0 255 0
-0.18374400 18.65780067 27.95899963 2 255 0
-0.81924403 19.07290077 25.90480042 0 180 74
0.01615620 18.83040047 27.91279984 0 255 0
0.17990699 19.02599907 27.98200035 2 255 0
-0.26080501 18.39660072 27.71949959 0 248 6
-0.01459880 18.54380035 28.05500031 5 255 0
-0.64659500 18.95630074 25.95660019 0 181 73
0.07225040 18.79439926 27.62319946 0 244 10
0.26126200 18.97470093 27.77750015 0 250 4
-0.12390300 18.30439949 27.70339966 0 247 7
-0.01597070 18.54109955 27.57740021 0 243 11
0.21969700 18.69330025 27.64539909 0 245 9
0.47389299 18.82119942 28.04590034 5 255 0
0.07668350 18.17449951 27.90660095 0 255 0
0.15374200 18.42679977 27.67609978 0 246 8
0.41554701 18.55750084 27.84959984 0 253 1
0.59955901 18.73530006 28.00469971 4 255 0
0.17918500 18.10269928 27.78030014 0 250 4
0.32164201 18.31380081 27.77700043 0 250 4
0.52753597 18.48170090 27.75230026 0 249 5
0.68644899 18.68000031 27.81270027 0 252 2
0.28578100 18.02829933 27.66440010 0 246 8
0.46210101 18.21859932 27.78490067 0 250 4
0.63811803 18.40690041 27.64640045 0 245 9
0.84207702 18.57060051 27.88829994 0 255 0
0.40654099 17.94560051 27.59720039 0 243 11
0.54227298 18.16250038 27.56520081 0 242 12
0.78555900 18.30559921 27.68510056 0 246 8
1.00085998 18.45859909 27.98489952 3 255 0
0.54792899 17.85079956 27.60779953 0 244 10
0.76339000 18.01499939 27.89170074 0 255 0
1.01294005 18.14690018 28.06100082 5 255 0
1.05973995 18.42600060 27.66180038 0 246 8
0.70341402 17.74780083 27.67760086 0 246 8
0.90176302 17.92130089 27.90469933 0 255 0
0.98359299 18.17289925 27.36400032 0 234 20
1.15538001 18.36440086 27.48279953 0 239 15
0.76540399 17.69890022 27.37409973 0 235 19
0.88882798 17.92519951 27.28409958 0 231 23
1.12032998 18.07939911 27.35880089 0 234 20
1.27629995 18.28280067 27.41049957 0 237 17
0.86127102 17.63010025 27.19610023 0 228 26
0.99751598 17.85050011 27.15410042 0 227 27
1.16434002 18.05290031 26.93009949 0 218 36
1.37164998 18.22200012 27.21380043 0 229 25
0.95272201 17.56349945 26.98979950 0 220 34
1.18715000 17.72360039 27.38269997 0 235 19
1.23251998 18.00919914 26.58819962 0 205 49
1.53787994 18.10390091 27.35639954 0 234 20
1.03175998 17.50370026 26.71619987 0 210 44
1.38147998 17.59379959 27.65270042 0 246 8
1.66637003 17.70019913 28.03140068 5 255 0
1.24842000 18.00359917 25.96489906 0 182 72
1.78085005 17.92270088 27.90870094 0 255 0
1.44563997 18.19680023 26.18210030 0 190 64
1.01651001 17.49629974 25.98670006 0 183 71
1.52347004 17.49769974 27.69239998 0 247 7
1.78579998 17.61899948 27.97540092 2 255 0
1.92307997 17.82320023 27.96910095 2 255 0
1.33975995 17.29910088 26.84169960 0 215 39
1.70526004 17.37619972 27.93799973 1 255 0
1.29683006 17.63730049 25.88450050 0 179 75
1.83652997 17.58799934 27.55039978 0 242 12
2.01186991 17.76790047 27.73889923 0 249 5
1.46378005 17.21369934 26.76580048 0 212 42
1.76758003 17.33110046 27.58149910 0 243 11
1.94919002 17.51189995 27.43750000 0 237 17
2.12715006 17.69090080 27.64599991 0 245 9
1.61859000 17.11120033 26.84749985 0 215 39
1.96403003 17.20039940 27.92860031 1 255 0
1.64093006 17.40589905 26.16979980 0 189 65
2.07836008 17.42390060 27.41370010 0 237 17
2.26594996 17.59429932 27.69109917 0 247 7
1.77375996 17.00869942 26.94079971 0 219 35
2.11728001 17.09740067 28.06310081 5 255 0
1.76721001 17.31940079 26.07589912 0 186 68
2.27525997 17.28599930 27.80290031 0 251 3
2.42223001 17.48270035 27.85530090 0 253 1
1.88923001 16.92779922 26.82019997 0 214 40
2.23362994 17.01779938 27.99349976 3 255 0
1.90286005 17.22690010 26.03219986 0 184 70
2.35543990 17.23390007 27.48810005 0 239 15
2.53207994 17.41049957 27.72710037 0 249 5
2.05937004 16.81769943 27.01499939 0 222 32
2.31908989 16.95770073 27.72859955 0 249 5
2.48400998 17.14620018 27.46870041 0 239 15
2.66857004 17.31539917 27.77689934 0 250 4
2.22804999 16.70879936 27.22170067 0 229 25
2.45806003 16.86370087 27.78899956 0 251 3
2.62243009 17.05120087 27.51950073 0 240 14
2.80150008 17.22330093 27.80850029 0 252 2
2.36923003 16.61459923 27.27300072 0 231 23
2.61756992 16.75699997 27.99880028 3 255 0
2.78513002 16.93799973 27.75930023 0 249 5
2.92128992 17.14279938 27.74309921 0 249 5
2.53262997 16.50930023 27.48360062 0 239 15
2.73001003 16.67980003 27.89480019 0 255 0
2.83615994 16.90839958 27.15189934 0 227 27
3.07242990 17.03409958 27.93549919 1 255 0
2.51652002 16.49430084 26.43160057 0 199 55
2.78012991 16.64100075 27.30760002 0 232 22
2.83300996 16.92040062 26.02009964 0 184 70
3.08018994 17.05579948 26.87420082 0 216 38
2.65513992 16.40060043 26.43689919 0 200 54
2.94778991 16.52939987 27.60099983 0 243 11
2.96065998 16.83429909 25.90679932 0 180 74
3.36579990 16.82299995 28.32620049 16 255 0
3.11653996 17.05470085 25.94029999 0 181 73
2.74782991 16.32889938 26.07710075 0 186 68
3.15035009 16.39679909 28.23329926 12 255 0
2.87983990 16.56209946 25.91489983 0 180 74
3.10018992 16.73909950 25.89380074 0 179 75
3.44928002 16.77610016 27.91959953 0 255 0
2.86181998 16.24629974 25.85680008 0 177 77
3.28722000 16.30470085 28.35280037 17 255 0
3.45897007 16.47480011 28.12529945 8 255 0
3.53044009 16.73320007 27.42420006 0 237 17
3.20800996 16.05800056 27.72240067 0 248 6
3.36954999 16.24550056 27.95739937 2 255 0
3.54908991 16.41650009 27.75000000 0 249 5
3.71452999 16.59000015 28.09119987 7 255 0
3.35478997 15.96319962 27.91370010 0 255 0
3.47533989 16.17189980 27.75139999 0 249 5
3.65936995 16.34300041 27.55439949 0 242 12
3.85368991 16.48959923 28.29360008 14 255 0
3.47498012 15.88029957 27.85810089 0 253 1
3.58745003 16.09429932 27.58620071 0 243 11
3.82294011 16.22719955 28.02659988 5 255 0
3.94720006 16.43639946 27.87080002 0 254 0
3.60987997 15.79139996 27.96299934 2 255 0
3.77840996 15.97080040 28.37800026 17 255 0
3.96113992 16.13120079 28.23200035 12 255 0
4.06724977 16.35639954 27.78720093 0 251 3
3.73671007 15.70600033 27.98970032 3 255 0
3.86419010 15.90839958 27.88680077 0 255 0
4.05774021 16.06900024 27.81100082 0 252 2
4.20758009 16.25340080 28.06360054 5 255 0
3.85134006 15.62489986 27.85820007 0 253 1
3.98508000 15.82569981 27.82500076 0 252 2
4.18460989 15.98219967 27.83959961 0 252 2
4.33922005 16.15880013 28.24189949 12 255 0
3.99154997 15.53540039 28.08709908 7 255 0
4.11549997 15.73760033 27.91419983 0 255 0
4.31471014 15.89249992 27.94939995 2 255 0
4.44059992 16.10309982 27.71330070 0 248 6
4.11426020 15.45180035 28.07789993 6 255 0
4.26547003 15.63959980 28.41410065 19 255 0
4.44988012 15.79790020 28.23040009 12 255 0
4.54476976 16.04940033 27.03569984 0 222 32
4.23289013 15.36900043 27.99020004 3 255 0
4.35426998 15.57330036 27.68729973 0 247 7
4.56119013 15.72480011 27.90360069 0 255 0
4.65743017 15.99110031 26.30890083 0 195 59
4.32604980 15.28849983 27.30430031 0 232 22
4.43994999 15.50609970 26.59149933 0 205 49
4.67866993 15.64710045 27.63780022 0 245 9
4.63493013 15.69219971 25.89889908 0 179 75
4.81056976 15.86060047 27.32159996 0 233 21
4.43948984 15.20129967 26.89909935 0 217 37
4.55373001 15.42310047 25.91609955 0 180 74
4.77339983 15.59780025 25.89369965 0 179 75
4.92518997 15.81709957 25.96750069 0 182 72
4.56714010 15.11130047 26.77490044 0 213 41
4.69029999 15.32940006 25.83160019 0 177 77
4.91136980 15.50430012 25.84000015 0 177 77
5.06304979 15.72430038 25.92379951 0 180 74
4.67736006 15.01220036 25.81229973 0 176 78
4.82924986 15.23480034 25.82859993 0 177 77
5.05225992 15.40330029 26.40769958 0 198 56
5.19836998 15.61460018 26.60140038 0 206 48
4.83082008 14.93070030 26.73060036 0 210 44
4.96884012 15.14029980 25.90710068 0 180 74
5.18185997 15.30270004 27.80690002 0 252 2
5.31743002 15.50160027 27.84029961 0 252 2
4.96504021 14.84449959 26.94039917 0 219 35
5.10730982 15.04720020 26.05699921 0 185 69
5.31691980 15.21899986 26.85750008 0 216 38
5.44224977 15.41709995 27.82089996 0 252 2
5.47867012 15.44209957 25.88139915 0 179 75
5.09659004 14.76760006 27.45159912 0 238 16
5.23556995 14.97080040 27.41819954 0 237 17
5.44862986 15.12940025 26.84950066 0 215 39
5.61412001 15.34679985 26.00349998 0 183 71
5.22563982 14.67220020 27.15430069 0 227 27
5.36304998 14.88399982 27.42079926 0 237 17
5.57717991 15.04069996 26.97290039 0 220 34
5.70899010 15.24899960 27.29630089 0 232 22
5.35739994 14.57789993 26.97850037 0 220 34
5.50062990 14.78629971 26.94499969 0 219 35
5.68182993 14.96240044 27.77720070 0 250 4
5.81513977 15.16259956 27.85050011 0 253 1
5.48784018 14.48929977 26.99390030 0 221 33
5.62104988 14.70730019 27.32019997 0 233 21
5.83892012 14.86250019 26.97380066 0 220 34
5.96139002 15.07470036 27.39690018 0 236 18
5.60455990 14.42230034 27.50009918 0 240 14
5.73964977 14.62870026 27.59659958 0 243 11
5.97286987 14.77190018 26.91139984 0 217 37
6.09996986 14.98550034 27.20459938 0 228 26
5.75162983 14.30760002 26.92910004 0 218 36
5.87223005 14.53719997 27.45479965 0 238 16
6.10236979 14.68340015 26.95030022 0 219 35
6.21408987 14.90149975 27.45289993 0 238 16
5.87505007 14.22799969 27.11829948 0 225 29
6.00392008 14.44670010 27.37430000 0 235 19
6.19822979 14.61310005 27.52919960 0 241 13
6.31501007 14.82299995 27.84189987 0 252 2
6.01550007 14.12679958 26.90979958 0 217 37
6.13339996 14.35820007 27.35510063 0 234 20
6.37422991 14.49950027 26.82270050 0 214 40
6.47454977 14.72609997 27.39450073 0 236 18
6.10375023 14.08570004 27.67950058 0 246 8
6.24009991 14.28820038 27.69610023 0 247 7
6.53853989 14.39130020 26.40749931 0 198 56
6.57208014 14.65040016 27.76580048 0 249 5
6.72753000 14.59230042 25.91320038 0 180 74
6.28334999 13.94200039 26.84639931 0 215 39
6.38698006 14.18570042 27.41060066 0 237 17
6.67408991 14.29899979 26.41250038 0 198 56
6.69066000 14.56789970 27.84930038 0 253 1
6.86853981 14.49699974 25.89870071 0 179 75
6.49417019 13.77040005 25.74749947 0 174 80
6.64265013 13.99829960 25.80349922 0 176 78
6.86734009 14.17310047 25.78240013 0 175 79
6.98342991 14.41259956 26.15410042 0 189 65
6.61416006 13.69489956 26.01359940 0 183 71
6.75168991 13.92679977 26.16900063 0 189 65
7.00655985 14.07820034 25.80069923 0 175 79
7.08213997 14.33609962 26.52980042 0 203 51
6.74661016 13.60620022 26.09210014 0 186 68
6.78771019 13.91110039 27.26029968 0 231 23
