4.99627018 9.11643982 26.78619957 68 255 0
5.22407007 9.27495003 26.70630074 45 255 0
5.37389994 9.48688984 26.70619965 45 255 0
4.99665022 8.80093002 26.67119980 35 255 0
5.14343023 9.01494026 26.69350052 41 255 0
5.34994984 9.18480968 26.76239967 62 255 0
5.49796009 9.39696980 26.77210045 65 255 0
5.12732983 8.70851040 26.69849968 43 255 0
5.27851009 8.92004013 26.69120026 41 255 0
2.25780010 11.77140045 26.58510017 9 255 0
2.24066997 11.47159958 26.49810028 0 239 15
2.38948011 11.68150043 26.53809929 0 251 3
2.15907001 11.21199989 26.52849960 0 248 6
2.37314010 11.37889957 26.49239922 0 237 17
2.52169991 11.58889961 26.53240013 0 249 5
2.29126000 11.11940002 26.52359962 0 246 8
2.50562000 11.28610039 26.48810005 0 236 18
2.65386009 11.49580002 26.53820038 0 251 3
2.27497005 10.81560040 26.49720001 0 239 15
2.42344999 11.02680016 26.52000046 0 245 9
2.63810992 11.19330025 26.48530006 0 235 19
2.78604007 11.40320015 26.53529930 0 250 4
2.40728998 10.72290039 26.49500084 0 238 16
2.55565000 10.93420029 26.51790047 0 245 9
2.77000999 11.09930038 26.52379990 0 246 8
2.91753006 11.30939960 26.56380081 3 255 0
2.53976989 10.63039970 26.41430092 0 214 40
2.68825006 10.84210014 26.47710037 0 233 21
2.90305996 11.00759983 26.48380089 0 234 20
3.04946995 11.21689987 26.56380081 3 255 0
2.67188001 10.53730011 26.49489975 0 238 16
2.82000995 10.74880028 26.51779938 0 245 9
3.03433990 10.91390038 26.52510071 0 246 8
3.18101001 11.12399960 26.57519913 6 255 0
2.80414009 10.44449997 26.49699974 0 238 16
2.95020008 10.65569973 26.59989929 14 255 0
3.16177011 10.81939983 26.65780067 31 255 0
3.31150007 11.03079987 26.60790062 16 255 0
2.93635988 10.35169983 26.50049973 0 240 14
3.08204007 10.56340027 26.59329987 11 255 0
3.28773999 10.72620010 26.78190041 68 255 0
3.43230009 10.93410015 26.82180023 79 255 0
3.06729007 10.25949955 26.54540062 0 252 2
3.21048999 10.47140026 26.67810059 37 255 0
3.42199993 10.63500023 26.70750046 45 255 0
3.56521010 10.84360027 26.77739906 66 255 0
3.20062995 10.16609955 26.51169968 0 243 11
3.33957005 10.37979984 26.72430038 50 255 0
3.54182005 10.54339981 26.90410042 103 255 0
3.68437004 10.75030041 26.95389938 118 255 0
3.33266997 10.07320023 26.51939964 0 245 9
3.46959996 10.28820038 26.74200058 56 255 0
3.67113996 10.45240021 26.91239929 106 255 0
3.80538988 10.65900040 27.07180023 153 255 0
3.45888996 9.98390007 26.63829994 25 255 0
3.59100008 10.19950008 26.90069962 102 255 0
3.78888988 10.36330032 27.08160019 156 255 0
3.92635012 10.56879997 27.17110062 182 255 0
3.58226991 9.89643002 26.77849960 66 255 0
3.71486998 10.11050034 26.99080086 129 255 0
3.91688991 10.27320004 27.09250069 159 255 0
4.05028009 10.47939968 27.22179985 197 255 0
3.71033001 9.80611992 26.82019997 79 255 0
3.85163999 10.01669979 26.89279938 100 255 0
4.03704977 10.18509960 27.19440079 189 255 0
4.16977978 10.39070034 27.31360054 224 255 0
3.84226990 9.71333981 26.80340004 74 255 0
3.96542001 9.93233967 27.09510040 160 255 0
4.16791010 10.09449959 27.16810036 181 255 0
4.30014992 10.30109978 27.28730011 216 255 0
3.96323991 9.62753963 26.92749977 110 255 0
4.08967018 9.84389973 27.14929962 175 255 0
4.28719997 10.00730038 27.26269913 209 255 0
4.43098021 10.21119976 27.26239967 209 255 0
4.08076000 9.54401970 27.07259941 153 255 0
4.21609020 9.75454998 27.17490005 183 255 0
4.42238998 9.91508007 27.19939995 190 255 0
4.57261992 10.11859989 27.14959908 176 255 0
4.21619987 9.44890976 27.01020050 135 255 0
4.35251999 9.66032982 27.10250092 162 255 0
4.55514002 9.82339954 27.16749954 181 255 0
4.71351004 10.02540016 27.05820084 149 255 0
4.34142017 9.36038971 27.05850029 149 255 0
4.48788023 9.56637955 27.05150032 147 255 0
4.70545006 9.72480965 26.99819946 131 255 0
4.85838985 9.93054008 26.94860077 116 255 0
4.46932983 9.27009010 27.07839966 154 255 0
4.60653019 9.48083019 27.15069962 176 255 0
4.84415007 9.63002014 26.93959999 114 255 0
4.99675989 9.83679008 26.89999962 102 255 0
4.60634995 9.17372990 27.02039909 138 255 0
4.74495983 9.38506985 27.08270073 156 255 0
4.97296000 9.53901958 26.96170044 121 255 0
5.14455986 9.73972988 26.79369926 71 255 0
4.75416994 9.07013988 26.88489914 97 255 0
4.88842010 9.28639030 26.98670006 127 255 0
5.13152981 9.43525028 26.77770042 66 255 0
5.30304003 9.63848019 26.62980080 23 255 0
4.87283993 8.98581982 26.98819923 128 255 0
5.04304981 9.18134022 26.82320023 80 255 0
5.27340984 9.33808994 26.72400093 50 255 0
5.42775011 9.54802036 26.69459915 41 255 0
5.03268003 8.87401009 26.78689957 69 255 0
5.19580984 9.07691002 26.69120026 41 255 0
5.40839005 9.24378967 26.72109985 50 255 0
5.56486988 9.45328999 26.68190002 38 255 0
5.18689013 8.76581001 26.64669991 27 255 0
5.31408024 8.99141026 26.79739952 72 255 0
2.28527999 11.87119961 26.53720093 0 250 4
2.26863003 11.56890011 26.48950005 0 236 18
2.41752005 11.77799988 26.54000092 0 251 3
2.18550992 11.31219959 26.43939972 0 222 32
2.40107989 11.47620010 26.48360062 0 234 20
2.54966998 11.68610001 26.52409935 0 246 8
2.16897988 11.00720024 26.41090012 0 213 41
2.31870008 11.21790028 26.47419930 0 231 23
2.53354001 11.38339996 26.47920036 0 233 21
2.68190002 11.59350014 26.51969910 0 245 9
2.30185008 10.91409969 26.40710068 0 212 42
2.45116997 11.12510014 26.47050095 0 231 23
2.66600990 11.29049969 26.47610092 0 232 22
2.81349993 11.49890041 26.55660057 1 255 0
2.43511009 10.82009983 26.48480034 0 235 19
2.58337998 11.03050041 26.54809952 0 254 0
2.79788995 11.19639969 26.51449966 0 243 11
2.94544005 11.40639973 26.55500031 0 255 0
2.56759000 10.72780037 26.40390015 0 211 43
2.71608996 10.93939972 26.46719933 0 230 24
2.93092990 11.10480022 26.47430038 0 231 23
3.07735991 11.31389999 26.55480003 0 255 0
2.70042992 10.63459969 26.40439987 0 211 43
2.84923005 10.84689999 26.42770004 0 218 36
3.06334996 11.01179981 26.47550011 0 232 22
3.20888996 11.22099972 26.56599998 4 255 0
2.83257008 10.54150009 26.44630051 0 223 31
2.97994995 10.75319958 26.50959969 0 242 12
3.18957996 10.91609955 26.64789963 28 255 0
3.33537006 11.12520027 26.68840027 40 255 0
2.96148992 10.44989967 26.59950066 14 255 0
3.10598993 10.66009998 26.70280075 44 255 0
3.31896996 10.82359982 26.69190025 41 255 0
3.46266007 11.03160000 26.76230049 62 255 0
3.09625006 10.35599995 26.49430084 0 237 17
3.23977995 10.56799984 26.62759972 22 255 0
3.44824004 10.73149967 26.72719955 51 255 0
3.59007001 10.93910027 26.81749916 78 255 0
3.22833991 10.26309967 26.50040054 0 240 14
3.36496997 10.47679996 26.76350021 62 255 0
3.56490993 10.63949966 26.97360039 124 255 0
3.71210003 10.84630013 26.94400024 115 255 0
3.35855007 10.17129993 26.54789925 0 253 1
3.49728990 10.38469982 26.73100090 53 255 0
3.69363999 10.54889965 26.98159981 126 255 0
3.83016992 10.75440025 27.10160065 162 255 0
3.48811007 10.07979965 26.59679985 13 255 0
3.62346005 10.29419994 26.80970001 76 255 0
3.81293011 10.45950031 27.12070084 167 255 0
3.95400000 10.66429996 27.16080093 179 255 0
3.60986996 9.99285030 26.76670074 63 255 0
3.74517012 10.20559978 26.93959999 114 255 0
3.94055009 10.36960030 27.13139915 170 255 0
4.07790995 10.57470036 27.21139908 194 255 0
3.74324012 9.89927006 26.72839928 52 255 0
3.87999010 10.11250019 26.87129974 94 255 0
4.07238007 10.27880001 27.09359932 159 255 0
4.20490980 10.48519993 27.22340012 198 255 0
3.87351990 9.80745029 26.74150085 56 255 0
3.99541998 10.02700043 27.05360031 148 255 0
4.19175005 10.19089985 27.19669914 189 255 0
4.33178997 10.39579964 27.23670006 201 255 0
3.98752999 9.72554970 26.95499992 118 255 0
4.11363983 9.94093990 27.17729950 183 255 0
4.32277012 10.10019970 27.17169952 182 255 0
4.46289015 10.30570030 27.21170044 194 255 0
4.11527014 9.63535023 26.98060036 126 255 0
4.24839020 9.84784031 27.11310005 165 255 0
4.44992018 10.01039982 27.18779945 187 255 0
4.60481024 10.21319962 27.09869957 160 255 0
4.23608017 9.54946995 27.07710075 154 255 0
4.37177992 9.75975037 27.16979980 181 255 0
4.58724022 9.91722965 27.11599922 166 255 0
4.74721003 10.11970043 26.99729919 131 255 0
4.36887980 9.45606041 27.04570007 145 255 0
4.51207018 9.66364002 27.06889915 152 255 0
4.73297977 9.82054043 26.98620033 127 255 0
4.87948990 10.02799988 26.98660088 127 255 0
4.50548983 9.36013985 26.98609924 127 255 0
4.64569998 9.57044983 27.03899956 143 255 0
4.87166977 9.72587013 26.92740059 110 255 0
5.02979994 9.93118000 26.84869957 87 255 0
4.63843012 9.26646996 26.96759987 122 255 0
4.78732014 9.47305012 26.95120049 117 255 0
5.01674986 9.62829971 26.83069992 82 255 0
5.17788982 9.83413029 26.74220085 56 255 0
4.78160000 9.16611958 26.87150002 94 255 0
4.92638016 9.37668037 26.89459991 100 255 0
5.16334009 9.52962017 26.73559952 53 255 0
5.33817005 9.73252964 26.56839943 5 255 0
4.91455984 9.07225990 26.86599922 92 255 0
5.08297014 9.27083015 26.72120094 50 255 0
5.30541992 9.43239975 26.68169975 38 255 0
5.45530987 9.64428997 26.68239975 38 255 0
5.06557989 8.96658039 26.73369980 53 255 0
5.23053980 9.16932964 26.62859917 22 255 0
5.44216013 9.33724976 26.66880035 34 255 0
5.58416986 9.55243969 26.71870041 49 255 0
5.22008991 8.85846043 26.59339905 11 255 0
5.35370016 9.08084011 26.70509911 44 255 0
2.27195001 11.93570042 26.53160095 0 249 5
2.25510001 11.63339996 26.48369980 0 234 20
2.40408993 11.84309959 26.52409935 0 246 8
2.17339993 11.37380028 26.51350021 0 243 11
2.38751006 11.54069996 26.47750092 0 233 21
2.53625989 11.75049973 26.51790047 0 245 9
2.15678000 11.07009983 26.48480034 0 235 19
2.30553007 11.28120041 26.50799942 0 242 12
2.51992989 11.44779968 26.47270012 0 231 23
2.66844010 11.65789986 26.51309967 0 243 11
2.28793001 10.97869968 26.40080070 0 210 44
2.43721008 11.19069958 26.42399979 0 217 37
2.65235996 11.35499954 26.46929932 0 231 23
2.80063009 11.56519985 26.50979996 0 242 12
2.42103004 10.88510036 26.43810081 0 221 33
2.56981993 11.09580040 26.50130081 0 240 14
2.78427005 11.26080036 26.50740051 0 242 12
2.93197989 11.47070026 26.54780006 0 253 1
2.55359006 10.79230022 26.39690018 0 209 45
2.70263004 11.00450039 26.42009926 0 216 38
2.91720009 11.16909981 26.46689987 0 230 24
3.06386995 11.37810040 26.54719925 0 253 1
2.68608999 10.69900036 26.43700027 0 221 33
2.83453989 10.91069984 26.47030067 0 231 23
3.04714990 11.07409954 26.55769920 1 255 0
3.19432998 11.28409958 26.58810043 10 255 0
2.81799006 10.60610008 26.47859955 0 233 21
2.96457005 10.81690025 26.57180023 5 255 0
3.17612004 10.98019981 26.63990021 26 255 0
3.32587004 11.19169998 26.59029961 11 255 0
2.95017004 10.51319981 26.48159981 0 234 20
3.09373999 10.72420025 26.65480042 30 255 0
3.30556011 10.88759995 26.68350029 38 255 0
3.44946003 11.09549999 26.75379944 59 255 0
3.08141994 10.42070007 26.51600075 0 244 10
3.22466993 10.63220024 26.65909958 31 255 0
3.43827009 10.79590034 26.64859962 28 255 0
3.57977009 11.00389957 26.75880051 61 255 0
3.21002007 10.32960033 26.61170006 17 255 0
3.35157990 10.54069996 26.75480080 59 255 0
3.55364990 10.70320034 26.93460083 112 255 0
3.69918990 10.90999985 26.93490028 112 255 0
3.34289002 10.23630047 26.57889938 8 255 0
3.47815990 10.44999981 26.83180046 82 255 0
3.68319988 10.61240005 26.93239975 112 255 0
3.81964993 10.81820011 27.06229973 150 255 0
3.47072005 10.14579964 26.65740013 31 255 0
3.60717010 10.35890007 26.85020065 88 255 0
3.80372000 10.52260017 27.06119919 150 255 0
3.94144011 10.72780037 27.15110016 176 255 0
3.59457994 10.05770016 26.78709984 69 255 0
3.72612000 10.27120018 27.01969910 137 255 0
3.92782998 10.43309975 27.12150002 167 255 0
4.06880999 10.63799953 27.16150093 179 255 0
3.72633004 9.96504974 26.76840019 63 255 0
3.85794997 10.17949963 26.98100090 126 255 0
4.05533981 10.34319973 27.13319969 171 255 0
4.19239998 10.54850006 27.21299934 195 255 0
3.85409999 9.87471962 26.81100082 76 255 0
3.98003006 10.09150028 27.07320023 153 255 0
4.18730021 10.25209999 27.09659958 160 255 0
4.31928015 10.45899963 27.22610092 198 255 0
3.97423005 9.78913021 26.94449997 115 255 0
4.10344982 10.00319958 27.13680077 171 255 0
4.31001997 10.16349983 27.16080093 179 255 0
4.45029020 10.36890030 27.20070076 191 255 0
4.09510994 9.70316029 27.04929924 146 255 0
4.23167992 9.91289997 27.14200020 174 255 0
4.43717003 10.07369995 27.17659950 183 255 0
4.59195995 10.27639961 27.08740044 157 255 0
4.22760010 9.60993004 27.01630020 136 255 0
4.36294985 9.82112980 27.11879921 166 255 0
4.56981993 9.98200989 27.14419937 174 255 0
4.73412991 10.18290043 26.98559952 127 255 0
4.35165024 9.52198029 27.07399940 154 255 0
4.49355984 9.72955036 27.10700035 163 255 0
4.71976995 9.88383007 26.97430038 124 255 0
4.87146997 10.08990002 26.93499947 112 255 0
4.48783016 9.42625046 27.01399994 136 255 0
4.63135004 9.63430023 27.03700066 142 255 0
4.85832024 9.78913975 26.91519928 106 255 0
5.01636982 9.99446011 26.83639908 83 255 0
4.62040997 9.33275032 26.99519920 130 255 0
4.76779985 9.53946018 26.98850060 128 255 0
4.99781990 9.69373035 26.85770035 90 255 0
5.15853977 9.89910984 26.76910019 64 255 0
4.75823021 9.23577023 26.93820000 113 255 0
4.89730978 9.44804001 27.00079918 132 255 0
5.14530993 9.59469032 26.75230026 59 255 0
5.31667995 9.79825020 26.60470009 15 255 0
4.89698982 9.13807964 26.88290024 97 255 0
5.05813980 9.33996964 26.78730011 69 255 0
5.28704977 9.49761009 26.69799995 43 255 0
5.44768000 9.70545959 26.62949944 23 255 0
5.03669024 9.03967953 26.82909966 81 255 0
5.19347000 9.24507046 26.77309990 65 255 0
5.42195988 9.40324020 26.69459915 41 255 0
5.57848978 9.61277008 26.65579987 30 255 0
5.20577002 8.92185974 26.57979965 8 255 0
5.34117985 9.14328003 26.68169975 38 255 0
2.24280000 11.65769958 26.48229980 0 234 20
2.39197993 11.86740017 26.52199936 0 246 8
2.37514997 11.56480026 26.47610092 0 232 22
2.52400994 11.77639961 26.48579979 0 235 19
2.29189992 11.30790043 26.42740059 0 218 36
2.50750995 11.47189999 26.47120094 0 231 23
2.65620995 11.68200016 26.51090050 0 243 11
2.27575994 11.00220013 26.44070053 0 222 32
2.42518997 11.21269989 26.50320053 0 240 14
2.63988996 11.37899971 26.46769905 0 230 24
2.78835011 11.58920002 26.50740051 0 242 12
2.40861011 10.90880013 26.47800064 0 233 21
2.55728006 11.11989975 26.50040054 0 240 14
2.77225995 11.28600025 26.46570015 0 229 25
2.92049003 11.49639988 26.50539970 0 241 13
2.54081011 10.81589985 26.47660065 0 232 22
2.68936992 11.02709961 26.49909973 0 239 15
2.90462995 11.19299984 26.46500015 0 229 25
3.05156994 11.40209961 26.54470062 0 252 2
2.67321992 10.72299957 26.43670082 0 221 33
2.82143998 10.93430042 26.49920082 0 239 15
3.03697991 11.09990025 26.46579933 0 229 25
3.18306994 11.30910015 26.55540085 0 255 0
2.80616999 10.62959957 26.39819908 0 209 45
2.95349002 10.84140015 26.50060081 0 240 14
3.16671991 11.00570011 26.54800034 0 254 0
3.30995989 11.21329975 26.67749977 37 255 0
2.93670011 10.53740025 26.51110077 0 243 11
3.08245993 10.74849987 26.61350060 17 255 0
3.29488993 10.91209984 26.64150047 26 255 0
3.43936992 11.12059975 26.71100044 47 255 0
3.06724000 10.44540024 26.56529999 3 255 0
3.21224999 10.65629959 26.65769958 31 255 0
3.41894007 10.81919956 26.79630089 71 255 0
3.56285000 11.02659988 26.84569931 86 255 0
3.20005012 10.35200024 26.53100014 0 249 5
3.33636999 10.56569958 26.82320023 80 255 0
3.54399991 10.72770023 26.89249992 100 255 0
3.69057989 10.93500042 26.88199997 97 255 0
3.33009005 10.26019955 26.57810020 7 255 0
3.46748996 10.47389984 26.80030060 73 255 0
3.66893005 10.63710022 26.96999931 123 255 0
3.80819011 10.84290028 27.05920029 149 255 0
3.46334004 10.16639996 26.54660034 0 253 1
3.60008001 10.38150024 26.75880051 61 255 0
3.78871989 10.54780006 27.10869980 163 255 0
3.93013000 10.75259972 27.14800072 175 255 0
3.58380008 10.08090019 26.75609970 60 255 0
3.72000003 10.29370022 26.92819977 110 255 0
3.91630006 10.45779991 27.11899948 166 255 0
4.05416012 10.66289997 27.19809914 190 255 0
3.71692991 9.98711014 26.71750069 48 255 0
3.85444999 10.20040035 26.85950089 90 255 0
4.04790020 10.36680031 27.08079910 155 255 0
4.18473005 10.57299995 27.16990089 182 255 0
3.84161997 9.89885044 26.80979919 76 255 0
3.96744990 10.11639977 27.08130074 156 255 0
4.17117977 10.27789974 27.14369965 174 255 0
4.31188011 10.48320007 27.18289948 186 255 0
3.95510006 9.81803989 27.03280067 142 255 0
4.09258986 10.02750015 27.12490082 169 255 0
4.30325985 10.18649960 27.10829926 163 255 0
4.44828987 10.39179993 27.10770035 163 255 0
4.08975983 9.72319031 26.96839905 122 255 0
4.23369980 9.93085003 26.99069977 129 255 0
4.43074989 10.09650040 27.12409973 168 255 0
4.59810019 10.29689980 26.92480087 109 255 0
4.21816015 9.63245964 26.98500061 127 255 0
4.35902023 9.84167957 27.03709984 142 255 0
4.57577991 9.99997044 26.98229980 127 255 0
4.73048019 10.20489979 26.91239929 106 255 0
4.34739017 9.54113007 26.99300003 130 255 0
4.49223995 9.74851990 27.00539970 133 255 0
4.70765018 9.90785027 26.97120094 123 255 0
4.86437988 10.11240005 26.89150047 100 255 0
4.48816013 9.44198036 26.89329910 100 255 0
4.63280010 9.65135956 26.91559982 106 255 0
4.85597992 9.80893040 26.83279991 83 255 0
5.00400019 10.01799965 26.83239937 83 255 0
4.61253977 9.35383034 26.95380020 118 255 0
4.75674009 9.56284046 26.97610092 124 255 0
5.00246000 9.71016026 26.72570038 51 255 0
5.15714979 9.91895962 26.68589973 39 255 0
4.75165987 9.25566006 26.88689995 98 255 0
4.91044998 9.45814037 26.80030060 73 255 0
5.14365005 9.61320019 26.66979980 35 255 0
5.31103992 9.81875992 26.55109978 0 255 0
4.89439011 9.15495968 26.80190086 74 255 0
5.05471992 9.35822964 26.71540070 47 255 0
5.29015017 9.51356983 26.58589935 9 255 0
5.43472004 9.72840023 26.62520027 21 255 0
5.05577993 9.04146004 26.59020042 11 255 0
5.20316982 9.25572968 26.61249924 17 255 0
5.42119980 9.42070007 26.61210060 17 255 0
5.55749989 9.63864994 26.70070076 44 255 0
5.19229984 8.94482040 26.57769966 7 255 0
5.33398008 9.16300964 26.63940048 26 255 0
5.31151009 8.85999012 26.68479919 38 255 0
2.25024009 11.65789986 26.47109985 0 231 23
2.39951992 11.86769962 26.50989914 0 243 11
2.16844010 11.39840031 26.50250053 0 240 14
2.38221002 11.56620026 26.43499947 0 220 34
2.53148007 11.77649975 26.47389984 0 231 23
2.29983997 11.30679989 26.45709991 0 227 27
2.51476002 11.47309971 26.43020058 0 219 35
2.66380000 11.68360043 26.46910095 0 230 24
2.28232002 11.00269985 26.39139938 0 207 47
2.43228006 11.21360016 26.46310043 0 228 26
2.64724994 11.37899971 26.45689964 0 227 27
2.79579997 11.58930016 26.49580002 0 238 16
2.41507006 10.90939999 26.38879967 0 207 47
2.56455994 11.12059975 26.46050072 0 228 26
2.77959991 11.28600025 26.45499992 0 226 28
2.92791009 11.49650002 26.49390030 0 237 17
2.54783010 10.81610012 26.38759995 0 206 48
2.69683003 11.02760029 26.45929909 0 228 26
2.91194010 11.19289970 26.45450020 0 226 28
3.05901003 11.40219975 26.53339958 0 249 5
2.68038011 10.72290039 26.42779922 0 218 36
2.82872009 10.93439960 26.48950005 0 236 18
3.04426003 11.09980011 26.45549965 0 226 28
3.19049001 11.30920029 26.54430008 0 252 2
2.81235003 10.63010025 26.46940041 0 231 23
2.95936990 10.84130001 26.56110001 2 255 0
3.17249990 11.00520039 26.58769989 10 255 0
3.31943989 11.21490002 26.61660004 19 255 0
2.94445992 10.53709984 26.47249985 0 231 23
3.09086990 10.74870014 26.56410027 3 255 0
3.30229998 10.91250038 26.63139915 23 255 0
3.44503999 11.12040043 26.74010086 55 255 0
3.07446003 10.44559956 26.55690002 1 255 0
3.21960998 10.65680027 26.64850044 28 255 0
3.43146992 10.82019997 26.67650032 36 255 0
3.57048011 11.02750015 26.83510017 83 255 0
3.20853996 10.35109997 26.48279953 0 234 20
3.34715009 10.56560040 26.73419952 53 255 0
3.55159998 10.72879982 26.88269997 97 255 0
3.69822001 10.93599987 26.87150002 94 255 0
3.33728004 10.26039982 26.56990051 5 255 0
3.47301006 10.47539997 26.83130074 82 255 0
3.67657995 10.63840008 26.96039963 120 255 0
3.81327009 10.84430027 27.08880043 158 255 0
3.46717000 10.16889954 26.60849953 16 255 0
3.60248995 10.38409996 26.83979988 84 255 0
3.79981995 10.54880047 27.04929924 146 255 0
3.94172001 10.75419998 27.08790016 157 255 0
3.58947992 10.08269978 26.77820015 66 255 0
3.72189999 10.29730034 27.00930023 134 255 0
3.92405009 10.45950031 27.10969925 164 255 0
4.06531000 10.66450024 27.14819908 175 255 0
3.71925998 9.99112988 26.78949928 70 255 0
3.85632992 10.20390034 26.93079948 111 255 0
4.05882978 10.36740017 27.03179932 141 255 0
4.19256020 10.57470036 27.15999985 179 255 0
3.84618998 9.90155983 26.84210014 85 255 0
3.97277999 10.11909962 27.10280037 162 255 0
4.17889977 10.27960014 27.13470078 171 255 0
4.31583977 10.48560047 27.21290016 194 255 0
3.96941996 9.81459999 26.93580055 112 255 0
4.10024023 10.02910042 27.11669922 166 255 0
4.30615997 10.18980026 27.14920044 175 255 0
4.45187998 10.39420033 27.13789940 172 255 0
4.09055996 9.72906971 27.04070091 144 255 0
4.22758007 9.93916035 27.13190079 171 255 0
4.43840981 10.09799957 27.11540031 166 255 0
4.59568977 10.30020046 27.00480080 133 255 0
4.21837997 9.63875008 27.05739975 148 255 0
4.35869980 9.84718037 27.10869980 163 255 0
4.56904984 10.00669956 27.10289955 162 255 0
4.72856998 10.20829964 26.98250008 127 255 0
4.35479021 9.54230976 26.98600006 127 255 0
4.49865007 9.75026989 27.00760078 134 255 0
4.71511984 9.90886974 26.96279907 121 255 0
4.87182999 10.11320019 26.88229942 97 255 0
4.49128008 9.44577980 26.92620087 110 255 0
4.63118982 9.65723038 26.98740005 128 255 0
4.86329985 9.80951023 26.82449913 80 255 0
5.01663017 10.01690006 26.78380013 68 255 0
4.61540985 9.35797977 26.98679924 127 255 0
4.76413012 9.56387043 26.96870041 122 255 0
4.99787998 9.71564007 26.80669975 74 255 0
5.16989994 9.91714001 26.63750076 25 255 0
4.76243019 9.25391006 26.85070038 88 255 0
4.91260004 9.46150017 26.83270073 83 255 0
5.15076017 9.61322021 26.66189957 32 255 0
5.32246017 9.81682014 26.51269913 0 243 11
4.89650011 9.15898991 26.83499908 83 255 0
5.05781984 9.36073017 26.73800087 54 255 0
5.29716015 9.51329994 26.57810020 7 255 0
5.43570995 9.73050022 26.65609932 30 255 0
5.06795979 9.03750992 26.54459953 0 252 2
5.22136021 9.24897957 26.52659988 0 247 7
5.42820978 9.42047977 26.60449982 15 255 0
5.56623983 9.63803959 26.68239975 38 255 0
5.19359016 8.94851017 26.61109924 17 255 0
5.33506012 9.16639042 26.67200089 35 255 0
5.32429981 8.85587025 26.63960075 26 255 0
2.29000998 11.95829964 26.49780083 0 239 15
2.27152991 11.65869999 26.38240051 0 204 50
2.42163992 11.86779976 26.45059967 0 225 29
2.19042993 11.39719963 26.45459938 0 226 28
2.40483999 11.56389999 26.41650009 0 215 39
2.55405998 11.77439976 26.45470047 0 226 28
2.17209005 11.09360027 26.36849976 0 201 53
2.32255006 11.30459976 26.43950081 0 222 32
2.53742003 11.47089958 26.41209984 0 213 41
2.68639994 11.68150043 26.45030022 0 225 29
2.30509996 11.00030041 26.37470055 0 202 52
2.45500994 11.21140003 26.44569969 0 223 31
2.66992998 11.37689972 26.43899918 0 222 32
2.81842995 11.58730030 26.47730064 0 233 21
2.43777990 10.90699959 26.36240005 0 198 56
2.58729005 11.11859989 26.43339920 0 219 35
2.80230999 11.28390026 26.43740082 0 221 33
2.95057011 11.49450016 26.47559929 0 232 22
2.57065010 10.81369972 26.37150002 0 201 53
2.71960998 11.02550030 26.44249916 0 222 32
2.93466997 11.19089985 26.43720055 0 221 33
3.08170009 11.40040016 26.51539993 0 244 10
2.70358992 10.72010040 26.33200073 0 189 65
2.85153008 10.93239975 26.47299957 0 231 23
3.06510997 11.09669971 26.51840019 0 245 9
3.21352005 11.30780029 26.51659966 0 244 10
2.83523989 10.62800026 26.45389938 0 225 29
2.98144007 10.83959961 26.58489990 9 255 0
3.19406009 11.00329971 26.61100006 17 255 0
3.34022999 11.21249962 26.64909935 28 255 0
2.96606994 10.53619957 26.52720070 0 247 7
3.11159992 10.74750042 26.62820053 22 255 0
3.32665992 10.91119957 26.57500076 6 255 0
3.47152996 11.12059975 26.64310074 26 255 0
3.09740996 10.44390011 26.54190063 0 252 2
3.24115992 10.65579987 26.67289925 35 255 0
3.44707990 10.81919956 26.82010078 79 255 0
3.59330010 11.02680016 26.81819916 78 255 0
3.23149991 10.34920025 26.46809959 0 230 24
3.36844993 10.56509972 26.75889969 61 255 0
3.57451010 10.72830009 26.86680031 92 255 0
3.71380997 10.93490028 26.97470093 124 255 0
3.36227989 10.25720024 26.50559998 0 241 13
3.50030994 10.47280025 26.72629929 51 255 0
3.69415998 10.63920021 27.03459930 142 255 0
3.83616996 10.84440041 27.07250023 153 255 0
3.49020004 10.16740036 26.59440041 12 255 0
3.62989998 10.38140011 26.74519920 56 255 0
3.82279992 10.54880047 27.03400040 142 255 0
3.96464992 10.75440025 27.07189941 153 255 0
3.61852002 10.07719994 26.65460014 30 255 0
3.75305009 10.29319954 26.86510086 91 255 0
3.95075011 10.45870018 27.04470062 145 255 0
4.08827019 10.66489983 27.13240051 171 255 0
3.74972010 9.98470974 26.65629959 30 255 0
3.87869000 10.20400047 26.92650032 110 255 0
4.08185005 10.36750031 27.01700020 136 255 0
4.21553993 10.57520008 27.14450073 174 255 0
3.87479997 9.89682007 26.74909973 58 255 0
4.00506020 10.11450005 26.96929932 123 255 0
4.20549011 10.27880001 27.08029938 155 255 0
4.34750986 10.48449993 27.10820007 163 255 0
3.98578000 9.81947041 27.01239967 135 255 0
4.12587023 10.02810001 27.07309914 153 255 0
4.33401012 10.18840027 27.08519936 157 255 0
4.48728991 10.39169979 27.00359917 133 255 0
4.12037992 9.72422028 26.94840050 116 255 0
4.26162004 9.93352985 26.99909973 131 255 0
4.46561003 10.09679985 27.06159973 150 255 0
4.62866020 10.29759979 26.90069962 102 255 0
4.24609995 9.63560963 26.99519920 130 255 0
4.38480997 9.84591961 27.06570053 151 255 0
4.61405993 9.99783039 26.89060020 99 255 0
4.76570988 10.20419979 26.84900093 87 255 0
4.38577986 9.53656960 26.89439964 100 255 0
4.53443003 9.74312973 26.87560081 95 255 0
4.74758005 9.90478039 26.87010002 93 255 0
4.90486002 10.10980034 26.78890038 69 255 0
4.51870012 9.44256020 26.87459946 94 255 0
4.65888023 9.65470028 26.93510056 112 255 0
4.88644981 9.80914021 26.81139946 76 255 0
5.04629993 10.01420021 26.72050095 49 255 0
4.65645981 9.34496021 26.81660080 77 255 0
4.80165005 9.55547047 26.83749962 84 255 0
5.03281021 9.70971012 26.70479965 44 255 0
5.19715023 9.91475964 26.59429932 12 255 0
4.79636002 9.24577999 26.75029945 58 255 0
4.96106005 9.44608021 26.62280083 20 255 0
5.17257977 9.61308002 26.65920067 31 255 0
5.32810020 9.82219982 26.61800003 19 255 0
4.92483997 9.15499020 26.78450012 68 255 0
5.08641005 9.35692978 26.68670082 39 255 0
5.32037020 9.51226997 26.56590080 4 255 0
5.47107983 9.72494030 26.56430054 3 255 0
5.10714006 9.02468967 26.41550064 0 214 40
5.24462986 9.24775982 26.51519966 0 244 10
5.44083023 9.42492008 26.66150093 32 255 0
5.57824993 9.64196968 26.73870087 55 255 0
5.23226023 8.93636036 26.49230003 0 237 17
5.37014008 9.15843010 26.58200073 8 255 0
2.30205011 11.96599960 26.44799995 0 224 30
2.28424001 11.66429996 26.36330032 0 199 55
2.43444991 11.87320042 26.44090080 0 222 32
2.20326996 11.40270042 26.43610001 0 220 34
2.41780996 11.56919956 26.40749931 0 212 42
2.56692004 11.77989960 26.44519997 0 223 31
2.18332005 11.09959984 26.28070068 0 174 80
2.33450007 11.31140041 26.36109924 0 198 56
2.55043006 11.47620010 26.40320015 0 210 44
2.69931006 11.68700027 26.44090080 0 222 32
2.31819010 11.00549984 26.35709953 0 197 57
2.46809006 11.21700001 26.42749977 0 218 36
2.68301010 11.38239956 26.43029976 0 219 35
2.83140993 11.59300041 26.46800041 0 230 24
2.45109010 10.91219997 26.35490036 0 196 58
2.60051990 11.12409973 26.42539978 0 217 37
2.81543994 11.28940010 26.42889977 0 219 35
2.96358991 11.50020027 26.46660042 0 229 25
2.58372998 10.81859970 26.27420044 0 173 81
2.73333001 11.03170013 26.34460068 0 193 61
2.94850993 11.19709969 26.38890076 0 207 47
3.09576988 11.40740013 26.46649933 0 229 25
2.71688008 10.72570038 26.35479927 0 196 58
2.86595011 10.93830013 26.37529945 0 202 52
3.08026004 11.10350037 26.43020058 0 219 35
3.22636008 11.31350040 26.51779938 0 245 9
2.84875011 10.63360023 26.44689941 0 224 30
2.99545002 10.84549999 26.54730034 0 253 1
3.20865011 11.00969982 26.56290054 2 255 0
3.35349989 11.21879959 26.64049911 26 255 0
2.97948003 10.54230022 26.53030014 0 249 5
3.12616992 10.75339985 26.58079910 8 255 0
3.33855009 10.91740036 26.60709953 16 255 0
3.48116994 11.12600040 26.71459961 47 255 0
3.11131001 10.44960022 26.52519989 0 247 7
3.25607991 10.66170025 26.62560081 21 255 0
3.46961999 10.82520008 26.61260033 17 255 0
3.60674000 11.03369999 26.80990028 76 255 0
3.24257994 10.35739994 26.54150009 0 252 2
3.38212991 10.57180023 26.75169945 59 255 0
3.58814001 10.73530006 26.85919952 90 255 0
3.73697996 10.94260025 26.80680084 74 255 0
3.37403989 10.26500034 26.54910088 0 254 0
3.51164007 10.48060036 26.76930046 64 255 0
3.71323991 10.64529991 26.93729973 113 255 0
3.85050011 10.85200024 27.05459976 148 255 0
3.50356007 10.17409992 26.59810066 13 255 0
3.63930011 10.39039993 26.81819916 78 255 0
3.83593988 10.55650043 27.03669930 142 255 0
3.97834992 10.76210022 27.06410027 151 255 0
3.62649989 10.08860016 26.75819969 60 255 0
3.75886989 10.30459976 26.98810005 128 255 0
3.96461010 10.46630001 27.03759956 142 255 0
4.10204983 10.67280006 27.12479973 169 255 0
3.76124001 9.99328041 26.69020081 41 255 0
3.89264011 10.21129990 26.92000008 108 255 0
4.09574986 10.37510014 27.01000023 135 255 0
4.23379993 10.58230019 27.08720016 157 255 0
3.88000011 9.91075993 26.87280083 94 255 0
4.00995016 10.12709999 27.08239937 156 255 0
4.21595001 10.28800011 27.11330032 165 255 0
4.36138010 10.49250031 27.10079956 161 255 0
4.00298977 9.82466030 26.96689987 122 255 0
4.13416004 10.03919983 27.13660049 171 255 0
4.34708977 10.19670010 27.08839989 157 255 0
4.49191999 10.40190029 27.08589935 157 255 0
4.12801981 9.73684978 27.02239990 138 255 0
4.26851988 9.94544029 27.07259941 153 255 0
4.47560978 10.10649967 27.09480095 160 255 0
4.64253998 10.30529976 26.89369965 100 255 0
4.25592995 9.64673042 27.03949928 143 255 0
4.39610004 9.85554981 27.08959961 158 255 0
4.61176014 10.01280022 27.03310013 142 255 0
4.77026987 10.21479988 26.92149925 109 255 0
4.39624023 9.54703999 26.92889977 111 255 0
4.54025984 9.75570011 26.94919968 117 255 0
4.75819016 9.91405010 26.89360046 100 255 0
4.91880989 10.11730003 26.78219986 68 255 0
4.53306007 9.45009995 26.86960030 93 255 0
4.67759991 9.65974998 26.88990021 99 255 0
4.90056992 9.81674004 26.80529976 74 255 0
5.06026983 10.02169991 26.71389961 47 255 0
4.66200018 9.35916996 26.89100075 100 255 0
4.80642986 9.56890965 26.91130066 106 255 0
5.04694986 9.71714973 26.69890022 43 255 0
5.21665001 9.91993999 26.54829979 0 254 0
4.80136013 9.26031971 26.82480049 80 255 0
4.95017004 9.46883011 26.81539917 77 255 0
5.19360018 9.61705017 26.60409927 15 255 0
5.35956001 9.82271957 26.49320030 0 237 17
4.94305992 9.15972996 26.75029945 58 255 0
5.10072994 9.36435032 26.68169975 38 255 0
5.33454990 9.51955032 26.56040001 2 255 0
5.47905016 9.73480034 26.59760094 13 255 0
5.12153006 9.03149986 26.41119957 0 213 41
5.25894022 9.25487995 26.51029968 0 243 11
5.47174978 9.42383003 26.54780006 0 253 1
5.59881020 9.64710045 26.69330025 41 255 0
5.24256992 8.94653988 26.51770020 0 245 9
5.37866020 9.16948032 26.61669922 19 255 0
2.30400991 11.99460030 26.44409943 0 223 31
2.28642011 11.69239998 26.36980057 0 201 53
2.43594003 11.90390015 26.39710045 0 209 45
2.20342994 11.43340015 26.35309982 0 196 58
2.41986990 11.59780025 26.40399933 0 211 43
2.56895995 11.80860043 26.44129944 0 222 32
2.18566990 11.12779999 26.28809929 0 177 77
2.33643007 11.34010029 26.34810066 0 195 59
2.55253005 11.50489998 26.39970016 0 210 44
2.70137000 11.71580029 26.43700027 0 221 33
2.31983995 11.03409958 26.32439995 0 187 67
2.46976995 11.24639988 26.37450027 0 202 52
2.68516994 11.41110039 26.42679977 0 218 36
2.83352995 11.62180042 26.46400070 0 228 26
2.45286989 10.94079971 26.31220055 0 184 70
2.60247993 11.15359974 26.34230042 0 192 62
2.81763005 11.31820011 26.42530060 0 217 37
2.96622992 11.52999973 26.43260002 0 219 35
2.58592010 10.84710026 26.27149963 0 172 82
2.73551011 11.06029987 26.34149933 0 192 62
2.95007992 11.22529984 26.42519951 0 217 37
3.09796000 11.43640041 26.46249962 0 228 26
2.71918011 10.75430012 26.35210037 0 195 59
2.86722994 10.96689987 26.46209908 0 228 26
3.08252001 11.13239956 26.42659950 0 218 36
3.23016000 11.34360027 26.46380043 0 228 26
2.85198998 10.66119957 26.36409950 0 199 55
2.99883008 10.87430000 26.49410057 0 237 17
3.21109009 11.03880024 26.55929947 2 255 0
3.35444999 11.24740028 26.67639923 36 255 0
2.98358989 10.56939983 26.43759918 0 221 33
3.12972999 10.78209972 26.53759956 0 250 4
3.34106994 10.94659996 26.60339928 14 255 0
3.48552990 11.15579987 26.67049980 35 255 0
3.11560011 10.47679996 26.45240021 0 225 29
3.25968003 10.69040012 26.59239960 11 255 0
3.46341991 10.85550022 26.80870056 75 255 0
3.61153007 11.06350040 26.76589966 62 255 0
3.24774003 10.38399982 26.45870018 0 227 27
3.38650990 10.60039997 26.70849991 46 255 0
3.59306002 10.76449966 26.81550026 77 255 0
3.73442006 10.97210026 26.89249992 100 255 0
3.37712002 10.29370022 26.53630066 0 250 4
3.51682997 10.50889969 26.71599960 48 255 0
3.71333003 10.67590046 26.98349953 127 255 0
3.85618997 10.88179970 27.01049995 135 255 0
3.50314999 10.20619965 26.66510010 33 255 0
3.63580990 10.42339993 26.93460083 112 255 0
3.83908010 10.58650017 27.03289986 142 255 0
3.98145008 10.79209995 27.05990028 149 255 0
3.63792992 10.11079979 26.59569931 12 255 0
3.76934004 10.33030033 26.86499977 91 255 0
3.96778989 10.49629974 27.03380013 142 255 0
4.10927010 10.70230007 27.07069969 152 255 0
3.76599002 10.02120018 26.65730095 31 255 0
3.89578009 10.24110031 26.91659927 107 255 0
4.09892988 10.40509987 27.00620079 133 255 0
4.23261976 10.61340046 27.13269997 171 255 0
3.88585997 9.93826008 26.82990074 82 255 0
4.01629019 10.15540028 27.03919983 143 255 0
4.22360992 10.31639957 27.05960083 149 255 0
4.36461020 10.52270031 27.09650040 160 255 0
4.01001978 9.85151958 26.91410065 106 255 0
4.14416981 10.06540012 27.05340004 148 255 0
4.35415983 10.22529984 27.04470062 145 255 0
4.51245022 10.42730045 26.91250038 106 255 0
4.13875008 9.76095963 26.92980003 111 255 0
4.27193022 9.97554970 27.06909943 152 255 0
4.48704004 10.13309956 27.01140022 135 255 0
4.64126015 10.33670044 26.92900085 111 255 0
4.27088022 9.66765022 26.90719986 104 255 0
4.41110992 9.87866020 26.96689987 122 255 0
4.63559008 10.03349972 26.84049988 85 255 0
4.78731012 10.24030018 26.79800034 72 255 0
4.39962006 9.57703018 26.92580032 109 255 0
4.54771996 9.78320026 26.90600014 104 255 0
4.77059984 9.93970966 26.81019974 76 255 0
4.93287992 10.14340019 26.68849945 40 255 0
4.53640985 9.48005009 26.86639977 92 255 0
4.68090010 9.68978024 26.88629913 98 255 0
4.90859985 9.84434032 26.76169968 62 255 0
5.07362986 10.04769993 26.63019943 23 255 0
4.68291998 9.37553978 26.72929955 52 255 0
4.81919003 9.59309006 26.82839966 81 255 0
5.07066011 9.73666000 26.53650093 0 250 4
5.23043013 9.94544029 26.46459961 0 229 25
4.81289005 9.28398991 26.75230026 59 255 0
4.97213984 9.48701954 26.66329956 32 255 0
5.20612001 9.64200020 26.53079987 0 249 5
5.35658979 9.85484028 26.52820015 0 248 6
4.96367979 9.17632961 26.60869980 16 255 0
5.11442995 9.38755035 26.59889984 14 255 0
5.34324980 9.54640007 26.51670074 0 244 10
5.48802996 9.76220036 26.55360031 0 255 0
5.12450981 9.06107998 26.40789986 0 212 42
5.26195002 9.28464031 26.50659943 0 241 13
5.47023010 9.45611000 26.57309914 5 255 0
5.59555006 9.67994976 26.72809982 51 255 0
5.24569988 8.97630024 26.51440048 0 243 11
5.38182020 9.19941998 26.61289978 17 255 0
2.31108999 12.01659966 26.44120026 0 222 32
2.29352999 11.71420002 26.36739922 0 200 54
2.44354010 11.92389965 26.43409920 0 220 34
2.20932007 11.45639992 26.30130005 0 180 74
2.42576003 11.62279987 26.31170082 0 183 71
2.57553005 11.83469963 26.34849930 0 195 59
2.19370008 11.14929962 26.31669998 0 185 69
2.34364009 11.36200047 26.34620094 0 194 60
2.55943990 11.52799988 26.35740089 0 197 57
2.70857000 11.73950005 26.39419937 0 208 46
2.32694006 11.05589962 26.31310081 0 184 70
2.47669005 11.26879978 26.34259987 0 193 61
2.69243002 11.43410015 26.38450050 0 205 49
2.84099007 11.64509964 26.43129921 0 219 35
2.45932007 10.96240044 26.24090004 0 163 91
2.60952997 11.17599964 26.29050064 0 177 77
2.82490993 11.34029961 26.42309952 0 216 38
2.97344995 11.55220032 26.42980003 0 219 35
2.59348989 10.86929989 26.32019997 0 186 68
2.74272990 11.08220005 26.36969948 0 201 53
2.95740008 11.24750042 26.42300034 0 216 38
3.10524011 11.45870018 26.45980072 0 228 26
2.72673011 10.77540016 26.28079987 0 174 80
2.87545991 10.98910046 26.38039970 0 204 50
3.08986998 11.15460014 26.42440033 0 217 37
3.23628998 11.36520004 26.50110054 0 240 14
2.85871005 10.68459988 26.44289970 0 222 32
3.00547004 10.89690018 26.54240036 0 252 2
3.22002006 11.06149960 26.50720024 0 241 13
3.36526990 11.27149963 26.58379936 9 255 0
2.99096990 10.59189987 26.44639969 0 223 31
3.13655996 10.80480003 26.56590080 4 255 0
3.34862995 10.96910000 26.60129929 14 255 0
3.49483991 11.17899990 26.62800026 22 255 0
3.12248993 10.49989986 26.48130035 0 234 20
3.26764011 10.71280003 26.58079910 8 255 0
3.47290993 10.87819958 26.76670074 63 255 0
3.61919999 11.08650017 26.76329994 62 255 0
3.25536990 10.40639973 26.45759964 0 227 27
3.39582992 10.62240028 26.66690063 33 255 0
3.60336995 10.78689957 26.76359940 62 255 0
3.74454999 10.99530029 26.85009956 88 255 0
3.38446999 10.31659985 26.54520035 0 252 2
3.52098989 10.53380013 26.79439926 71 255 0
3.72417998 10.69839954 26.93160057 112 255 0
3.86413002 10.90530014 27.00799942 134 255 0
3.51460004 10.22560024 26.58419991 9 255 0
3.64806008 10.44419956 26.85330009 88 255 0
3.84714007 10.60990047 27.03089905 141 255 0
3.99236012 10.81519985 27.01759911 137 255 0
3.63747001 10.14099979 26.75429916 59 255 0
3.77195001 10.35669994 26.95339966 118 255 0
3.97230005 10.52110004 27.08169937 156 255 0
4.11732006 10.72589970 27.06830025 152 255 0
3.76919007 10.04819965 26.73609924 54 255 0
3.89848995 10.26760006 26.99489975 130 255 0
4.10308981 10.43019962 27.05410004 148 255 0
4.24421978 10.63630009 27.09049988 158 255 0
3.89462996 9.96084023 26.81900024 78 255 0
4.02747011 10.17710018 26.99790001 131 255 0
4.23178005 10.34000015 27.05780029 148 255 0
4.38024998 10.54440022 27.01460075 136 255 0
4.02407980 9.86987972 26.83349991 83 255 0
4.15567017 10.08699989 27.01230049 135 255 0
4.36700010 10.24689960 26.99320030 130 255 0
4.51945019 10.45110035 26.92020035 108 255 0
4.14699984 9.78435993 26.92900085 111 255 0
4.28286982 9.99755001 27.03790092 143 255 0
4.49523020 10.15680027 27.00959969 134 255 0
4.65362978 10.35879993 26.88699913 98 255 0
4.28262997 9.68817043 26.86669922 92 255 0
4.42221022 9.90038967 26.93580055 112 255 0
4.64367008 10.05690002 26.83880043 84 255 0
4.79527998 10.26369953 26.79579926 71 255 0
4.41926003 9.59125996 26.80590057 74 255 0
4.56825018 9.79881954 26.78560066 68 255 0
4.77867985 9.96312046 26.80850029 75 255 0
4.93956995 10.16709995 26.69619942 42 255 0
4.55282021 9.49691963 26.78630066 68 255 0
4.70229006 9.70481968 26.76609993 62 255 0
4.92152023 9.86526012 26.72039986 49 255 0
5.07506990 10.07339954 26.67749977 37 255 0
4.68243980 9.40575027 26.80780029 75 255 0
4.82740021 9.61655045 26.82719994 81 255 0
5.07215977 9.76305962 26.58440018 9 255 0
5.23821020 9.96844006 26.46249962 0 228 26
4.83386993 9.29720974 26.64279938 26 255 0
4.99014997 9.50382042 26.58309937 8 255 0
5.21947002 9.66224003 26.48970032 0 237 17
5.37590981 9.87318039 26.44709969 0 224 30
4.98044014 9.19270039 26.53899956 0 251 3
5.13820982 9.40048027 26.47929955 0 233 21
5.35121012 9.56952953 26.51519966 0 244 10
5.50196981 9.78283024 26.51210022 0 243 11
5.13254023 9.08395958 26.40730095 0 212 42
5.26998997 9.30772018 26.50550079 0 241 13
5.47677994 9.48017979 26.58139992 8 255 0
5.60365009 9.70351028 26.72610092 51 255 0
5.25932980 8.99512005 26.47439957 0 232 22
5.40157986 9.21508980 26.53310013 0 249 5
2.33174992 12.03240013 26.34910011 0 195 59
2.31612992 11.72560024 26.35600090 0 197 57
2.46595001 11.93560028 26.42210007 0 216 38
2.23344994 11.46640015 26.34049988 0 192 62
2.44916010 11.63259983 26.35050011 0 195 59
2.59833002 11.84420013 26.38669968 0 206 48
2.21602011 11.16059971 26.27680016 0 174 80
2.36657000 11.37339973 26.33569908 0 191 63
2.58221006 11.53960037 26.34639931 0 194 60
2.73112988 11.75020027 26.41259956 0 213 41
2.34956002 11.06719971 26.27339935 0 172 82
2.49923992 11.28079987 26.29229927 0 178 76
2.71529007 11.44659996 26.34379959 0 193 61
2.86373997 11.65750027 26.40990067 0 213 41
2.48310995 10.97389984 26.27140045 0 172 82
2.63284993 11.18719959 26.33040047 0 189 65
2.84836006 11.35350037 26.34250069 0 193 61
2.99637008 11.56470013 26.40870094 0 213 41
2.61682010 10.88070011 26.30089951 0 180 74
2.76600003 11.09410000 26.32979965 0 189 65
2.98044991 11.25969982 26.41270065 0 213 41
3.12809992 11.47109985 26.44879913 0 224 30
2.75008011 10.78800011 26.34169960 0 192 62
2.89797997 11.00129986 26.45070076 0 225 29
3.11300993 11.16689968 26.41419983 0 214 40
3.25808001 11.37709999 26.53039932 0 249 5
2.88240004 10.69649982 26.42399979 0 217 37
3.03041005 10.90869999 26.44300079 0 222 32
3.24184990 11.07409954 26.54719925 0 253 1
3.38397002 11.28299999 26.69319916 41 255 0
3.01401997 10.60509968 26.47769928 0 233 21
3.16055012 10.81729984 26.53660011 0 250 4
3.37520003 10.98180008 26.50160027 0 240 14
3.51450992 11.19159985 26.69759941 42 255 0
3.14511991 10.51389980 26.52280045 0 246 8
3.28749990 10.72789955 26.69160080 41 255 0
3.49640012 10.89179993 26.75709915 60 255 0
3.64247990 11.10019970 26.75320053 59 255 0
3.27801991 10.42029953 26.48929977 0 236 18
3.41647005 10.63739967 26.73800087 54 255 0
3.62245011 10.80189991 26.84410095 85 255 0
3.75925994 11.00969982 26.98990059 129 255 0
3.40693998 10.33110046 26.57710075 7 255 0
3.54434991 10.54769993 26.79570007 71 255 0
3.74501991 10.71350002 26.97240067 124 255 0
3.89024997 10.91950035 26.95840073 119 255 0
3.53287005 10.24450016 26.70610046 45 255 0
3.66566992 10.46220016 26.96459961 121 255 0
3.87350011 10.62360001 26.98209953 127 255 0
4.01235008 10.83059978 27.05789948 148 255 0
3.66580009 10.15069962 26.66679955 33 255 0
3.79418993 10.37220001 26.97500038 124 255 0
4.00190020 10.53359985 26.99320030 130 255 0
4.14418983 10.74009991 27.01919937 137 255 0
3.78875995 10.06630039 26.80839920 75 255 0
3.92261004 10.28219986 26.98690033 127 255 0
4.12786007 10.44470024 27.03560066 142 255 0
4.26886988 10.65130043 27.07150078 153 255 0
3.91569996 9.97791958 26.86160088 91 255 0
4.04576015 10.19559956 27.06979942 152 255 0
4.25840998 10.35389996 27.01959991 137 255 0
4.40784979 10.55840015 26.96590042 121 255 0
4.04855013 9.88414955 26.82649994 80 255 0
4.18320990 10.09969997 26.96479988 121 255 0
4.39113998 10.26189995 26.98509979 127 255 0
4.54840994 10.46440029 26.86179924 91 255 0
4.17155981 9.79899025 26.92210007 109 255 0
4.30726004 10.01259995 27.03050041 141 255 0
4.52644014 10.16849995 26.93219948 112 255 0
4.68087006 10.37269974 26.84880066 87 255 0
4.31077003 9.69979000 26.82029915 79 255 0
4.45524979 9.90962029 26.83919907 84 255 0
4.66795015 10.07170010 26.83110046 82 255 0
4.83428001 10.27309990 26.65850067 31 255 0
4.44021988 9.60902023 26.83919907 84 255 0
4.58457994 9.81892967 26.85799980 90 255 0
4.81557989 9.97154045 26.69199944 41 255 0
4.96981001 10.17949963 26.63859940 25 255 0
4.56950998 9.51832962 26.85939980 90 255 0
4.72360992 9.72175026 26.78910065 70 255 0
4.95563984 9.87495995 26.63389969 23 255 0
5.13025999 10.07569981 26.43210030 0 219 35
4.71275997 9.41611004 26.75239944 59 255 0
4.86493015 9.62298965 26.71179962 47 255 0
5.10691023 9.77215958 26.49819946 0 239 15
5.27337980 9.97828960 26.37579918 0 203 51
4.85883999 9.31175995 26.63710022 25 255 0
5.02109003 9.51420975 26.52729988 0 247 7
5.24946022 9.67380047 26.44339943 0 222 32
5.38311005 9.89523983 26.55830002 2 255 0
5.02510023 9.19122028 26.37549973 0 203 51
5.16435003 9.41401005 26.46339989 0 228 26
5.38868999 9.57713032 26.41979980 0 216 38
5.52194023 9.79969978 26.53450012 0 249 5
5.14729023 9.10651970 26.48089981 0 234 20
5.29491997 9.32233047 26.49959946 0 239 15
5.50156021 9.49518967 26.57509995 6 255 0
5.63454008 9.71611023 26.67980003 37 255 0
5.28455019 9.00963020 26.46940041 0 231 23
5.40778017 9.24260998 26.65550041 30 255 0
2.35047007 12.03849983 26.34320068 0 193 61
2.33417010 11.73349953 26.30069923 0 180 74
2.48371005 11.94569969 26.33650017 0 191 63
2.25187993 11.47319984 26.29579926 0 179 75
2.46842003 11.63899994 26.34539986 0 194 60
2.61723995 11.85120010 26.37109947 0 201 53
2.23455000 11.16660023 26.22270012 0 157 97
2.38522005 11.38029957 26.28120041 0 174 80
2.60159993 11.54609966 26.34149933 0 192 62
2.75025010 11.75809956 26.37719917 0 203 51
2.36876988 11.07320023 26.22949982 0 160 94
2.51848006 11.28740025 26.24799919 0 165 89
2.73479009 11.45320034 26.33900070 0 192 62
2.88358998 11.66689968 26.32480049 0 188 66
2.50260997 10.97970009 26.21780014 0 156 98
2.65232992 11.19410038 26.24620056 0 165 89
2.86745000 11.35929966 26.41799927 0 215 39
3.01571989 11.57190037 26.40369987 0 211 43
2.63669991 10.88640022 26.22739983 0 159 95
2.78609991 11.10079956 26.27589989 0 173 81
3.00022006 11.26679993 26.40830040 0 212 42
3.14846992 11.47929955 26.40399933 0 211 43
2.77060008 10.79339981 26.25849915 0 168 86
2.91925001 11.00780010 26.32690048 0 188 66
3.13290000 11.17430019 26.41010094 0 213 41
3.27974010 11.38599968 26.45579910 0 226 28
2.90283990 10.70380020 26.43090057 0 219 35
3.04997993 10.91639996 26.47940063 0 233 21
3.26187992 11.08189964 26.54319954 0 252 2
3.40518999 11.29170036 26.64879990 28 255 0
3.03547001 10.61110020 26.42480087 0 217 37
3.18284011 10.82380009 26.45330048 0 225 29
3.39357996 10.98999977 26.54780006 0 253 1
3.53397989 11.20009995 26.70330048 44 255 0
3.16704988 10.51990032 26.47010040 0 231 23
3.31173992 10.73369980 26.56850052 5 255 0
3.51671004 10.90040016 26.75349998 59 255 0
3.66250992 11.10900021 26.74909973 58 255 0
3.29771996 10.42949963 26.52669907 0 247 7
3.43710995 10.64589977 26.73500061 53 255 0
3.64288998 10.81089973 26.84070015 85 255 0
3.78174996 11.01900005 26.94610023 115 255 0
3.42686009 10.34049988 26.60470009 15 255 0
3.56513000 10.55650043 26.79290009 71 255 0
3.76559997 10.72299957 26.96910095 122 255 0
3.90730000 10.92959976 27.00460052 133 255 0
3.55403996 10.25310040 26.70389938 44 255 0
3.68657994 10.47150040 26.96190071 121 255 0
3.89420009 10.63319969 26.97900009 125 255 0
4.03278017 10.84060001 27.05439949 148 255 0
3.68915009 10.15740013 26.62490082 21 255 0
3.81522012 10.38169956 26.97249985 124 255 0
4.02342987 10.54310036 26.98040009 126 255 0
4.16790009 10.74940014 26.97599983 124 255 0
3.81487989 10.07100010 26.72690010 51 255 0
3.94910002 10.28829956 26.90480042 103 255 0
4.15192986 10.45339966 26.99309921 130 255 0
4.29645014 10.65960026 26.98859978 128 255 0
3.93527007 9.98921013 26.88979912 99 255 0
4.07000017 10.20370007 27.02779961 140 255 0
4.27606010 10.36579990 27.05690002 148 255 0
4.43142986 10.56779957 26.93300056 112 255 0
4.07020998 9.89369011 26.82500076 80 255 0
4.20703983 10.10809994 26.93300056 112 255 0
4.41509008 10.27079964 26.95289993 118 255 0
4.56829977 10.47500038 26.86899948 93 255 0
4.19335985 9.80889988 26.92079926 108 255 0
4.32878017 10.02289963 27.02869987 140 255 0
4.55272007 10.17630005 26.88030052 96 255 0
4.70296001 10.38269997 26.83620071 83 255 0
4.32918978 9.71273041 26.85890007 90 255 0
4.46926022 9.92494965 26.91710091 107 255 0
4.69470978 10.07929993 26.77949905 67 255 0
4.84507990 10.28730011 26.74539948 56 255 0
4.46225023 9.61911011 26.83830070 84 255 0
4.61145020 9.82575035 26.80699921 75 255 0
4.83711004 9.98180962 26.69020081 41 255 0
4.99593019 10.18789959 26.59670067 13 255 0
4.59168005 9.52863979 26.85869980 90 255 0
4.74986982 9.72910976 26.74819946 57 255 0
4.97729015 9.88529015 26.63229942 23 255 0
5.14130020 10.09020042 26.50930023 0 242 12
4.73071003 9.43004036 26.79140091 70 255 0
4.88692999 9.63337994 26.71080017 47 255 0
5.13381004 9.77956009 26.45730019 0 227 27
5.29485989 9.98849010 26.37400055 0 202 52
4.88703012 9.31715012 26.58740044 10 255 0
5.03827000 9.52779961 26.56609917 4 255 0
5.27135992 9.68410969 26.44219971 0 222 32
